1629
43.11913 8.859947 -2.988186 
-57.0732 -40.50481 -7.578614 
41.48149 -37.72552 6.58017 
89.82779 -22.16505 -12.62956 
-28.18384 59.05902 -1.570831 
-16.85531 -65.7528 -21.33807 
23.67703 15.22571 0.2475093 
-28.82167 59.29519 -4.081042 
-53.05871 -52.36624 5.769437 
117.6974 -13.28476 -6.051944 
-18.84518 54.2865 -6.410846 
3.806878 -58.88779 -2.357877 
97.91823 -15.42014 -18.98876 
34.26085 7.887434 -5.848768 
40.77194 16.58719 7.370604 
96.99953 -13.648 11.82426 
-58.3211 9.644875 20.22744 
88.31198 3.230873 2.520984 
11.76118 -46.36095 -18.62838 
16.0948 20.42791 -2.807156 
69.86697 -25.43653 -30.87236 
-10.05731 -62.99656 -4.584025 
0.06568578 -46.64957 4.974746 
68.65608 -24.14149 24.98138 
4.739836 -58.59033 -26.07755 
-23.95899 -39.23671 -16.8666 
80.89491 -23.60823 2.334614 
116.7361 -16.44603 -12.69191 
-8.539496 -55.1622 24.84795 
-14.99824 -59.33968 16.6404 
12.72657 26.85768 -6.938776 
-51.31487 5.109262 -0.2137602 
40.28813 -37.93085 -18.83475 
-67.58921 -20.97699 7.120089 
-33.14385 9.344492 30.65191 
70.85069 -27.21047 7.394635 
107.3103 -9.47304 13.4837 
-3.919734 -6.787688 -10.44688 
51.91697 -40.95784 8.41933 
97.99905 -3.226961 8.035063 
28.01566 22.13268 -9.934628 
109.3655 -6.184681 9.37561 
-42.03676 65.19164 1.052672 
-21.18358 -28.01012 8.056644 
14.34381 -54.59186 -0.3700418 
-61.54416 -30.03642 12.1967 
-13.73613 -57.95214 26.91449 
-68.81809 19.24615 -2.324828 
89.60774 10.00549 -3.310935 
48.50633 -38.97531 -4.582577 
-22.56328 -59.13707 11.56009 
80.52155 -32.63802 4.060045 
-19.09209 -68.70281 -0.5190604 
81.29069 -30.46993 6.924525 
68.66349 -20.53332 -26.44749 
-32.56221 -55.47398 -9.438635 
86.67426 6.845166 -8.605093 
-9.704745 -65.71951 17.51635 
77.01431 11.02967 2.898724 
97.49683 -23.65726 -23.58453 
-52.37062 -0.2912976 -26.43483 
-58.33853 -23.88909 2.722584 
-43.28628 -29.80674 1.198991 
-34.68747 -55.20544 11.57075 
74.59725 -31.18774 -28.72647 
-2.376667 41.65529 21.29352 
-22.644 -31.33284 -18.73401 
53.56252 -36.86284 -8.376414 
21.54342 19.70347 -13.06743 
-8.050083 -38.88921 16.70051 
0.03915639 -32.36605 -17.96873 
27.96667 24.83792 2.452133 
-50.15622 -52.53582 12.20326 
61.15475 16.23055 -10.98503 
-6.993207 -53.1912 -0.3557482 
-25.29782 -47.95359 -21.94033 
-61.45248 -43.75261 -3.706901 
79.68826 -17.4053 -7.414439 
4.451778 -24.50165 -6.870063 
96.55104 -20.477 -18.50779 
98.43236 -23.04281 -26.99268 
0.6819329 -8.226502 7.277072 
-5.992624 35.85421 22.41924 
20.05202 18.07048 -3.420375 
-2.283516 -45.93377 0.006116074 
-47.1752 -38.78412 13.14538 
97.17746 0.05767324 -1.751592 
24.46842 11.80773 11.30346 
3.370173 10.29601 -1.422479 
62.7121 -30.72597 31.59287 
-17.64219 61.9492 1.620354 
-33.22438 -43.55745 17.43865 
-26.42583 50.86826 -1.250995 
48.03436 11.70098 2.560092 
0.3273611 -48.74549 -17.32244 
51.84971 -42.34102 1.131052 
-4.883079 -28.64383 10.46081 
56.16056 -38.99524 -29.25479 
6.223658 -53.25887 -23.13636 
111.6556 -20.3191 8.757929 
-64.63474 5.401833 -6.269995 
-40.50597 -1.31529 26.18029 
36.79417 -47.99588 -16.67394 
-24.77912 -42.07518 -5.475912 
83.24406 -27.18301 14.72464 
47.42124 -41.08527 -28.83274 
66.37526 -22.98493 4.905495 
95.3832 8.128787 2.64681 
20.49152 20.53042 5.044451 
-73.28079 -15.30936 3.281077 
-5.553153 -64.39541 4.566301 
-41.90097 -45.12246 20.34442 
-34.80751 8.743749 25.43613 
-31.22675 -69.31639 -17.11849 
-0.4506921 -19.47649 -13.86791 
33.81887 -40.92705 -11.16093 
2.414559 12.55273 -1.682678 
35.88314 -46.21683 -11.84049 
-41.31978 39.64482 -8.482813 
-21.82833 -47.27925 -11.15606 
94.75797 -22.43531 15.87873 
-38.08595 5.75875 -31.39337 
7.990617 -19.4131 -14.01444 
-22.36305 -63.22348 6.020501 
-48.62526 61.25884 -5.121088 
-36.47086 -28.03867 6.236115 
16.73381 -43.78746 6.443533 
77.61866 8.714648 -6.632724 
-59.73714 38.33033 7.501612 
-63.46888 -16.20632 6.29778 
-36.52889 -68.29434 -1.345648 
99.17923 -6.160433 4.617385 
90.08636 -10.28194 -1.399172 
102.5404 -12.2189 24.00254 
-0.8779444 -13.01747 4.613559 
11.94936 46.54824 -7.584435 
-26.80148 -31.38183 -15.43988 
18.60783 -48.22071 -2.35899 
-40.04428 -58.93204 -11.20958 
-48.44632 -32.52251 -10.6489 
10.21351 -17.44947 12.8406 
-1.523407 -18.9405 -4.03527 
57.17427 -33.33487 7.200864 
-60.94223 -46.86712 -6.10179 
-64.2663 8.481655 -0.04155646 
-56.45037 -46.03181 -10.28773 
-66.77592 -7.118912 -8.380716 
-50.41701 -52.69863 3.830728 
-49.01912 -23.75541 1.999832 
0.9748098 -28.26373 13.37401 
47.10911 -44.13415 -15.13356 
-55.21693 37.01236 -7.512277 
31.7761 -49.49553 27.23121 
-2.284596 17.72147 6.734364 
5.794264 -21.16311 15.98271 
28.95529 -42.44379 8.529178 
109.3266 -23.07008 17.82003 
100.131 -23.34722 -29.74061 
7.159148 45.90397 -6.633088 
-3.727986 -34.20329 -7.007084 
-32.97396 58.90823 3.705458 
30.05143 -45.91065 -3.420447 
-12.13807 -41.0245 17.87654 
-12.59892 -20.21507 1.297676 
-65.7775 20.80975 -3.633858 
-54.89458 -29.23951 11.30938 
38.89334 -41.3082 31.07945 
61.47634 -27.96702 17.22445 
10.68976 29.89351 2.801723 
57.80826 13.99496 -6.583061 
96.84451 -21.73227 -11.01237 
8.786544 34.26672 -3.350255 
70.59406 -22.44497 10.13224 
89.49796 -27.12519 2.75647 
48.07895 -30.26001 -28.98355 
-1.206029 -53.88655 -11.22393 
-38.86074 -33.57256 5.549113 
-57.82746 -4.792825 -20.55427 
87.6927 -8.952069 -14.42124 
56.81641 -35.6502 30.11767 
14.21555 31.68073 2.189142 
30.034 10.77945 -0.736414 
-47.22895 -41.26738 -4.023696 
46.45322 -30.09764 27.01426 
7.590272 -45.26324 8.825857 
109.4845 -18.24792 13.80583 
-47.58915 -40.95145 7.988367 
59.33284 -26.67009 3.927889 
-3.746643 47.08773 14.25922 
29.61703 -46.90818 -19.09128 
-13.51675 63.62176 4.289822 
2.280751 -27.30084 11.91835 
-24.24981 48.6728 -1.931982 
-13.8609 22.47434 -29.43288 
-52.72098 30.08381 -0.2835304 
72.62265 13.18764 -8.906972 
86.64922 -28.34537 8.590632 
30.03138 22.84332 -7.531102 
87.04668 -13.43019 -6.878584 
-27.77892 -39.8186 -3.388667 
70.95173 14.11413 -5.532998 
40.62426 -41.75133 -2.736181 
-62.87603 -1.01655 -12.38545 
27.48376 -44.34446 -4.845394 
-29.96879 -65.20494 1.551082 
13.58886 25.17051 -4.87118 
-12.98513 45.65211 4.32051 
91.9645 -23.22121 -27.13643 
-47.4689 -5.979829 -24.88676 
-10.33871 20.15264 23.97008 
-25.99962 -56.94487 11.41043 
-8.29927 -20.16577 -16.12602 
-19.67017 -28.57206 7.588568 
7.271585 -7.601737 -9.293983 
51.36325 13.11269 0.7600462 
7.645827 8.361559 -1.899941 
-19.50003 54.14716 0.02324396 
28.95783 -52.56565 -2.753764 
-9.401234 -26.99919 7.591351 
-22.04065 -38.74515 -15.9162 
-54.53302 -12.92996 -3.090756 
56.97704 -37.61769 26.15861 
87.38755 -24.50382 -14.45614 
-40.29684 -44.31983 -16.29505 
-62.33286 8.229671 4.021664 
108.276 -1.761616 12.97862 
54.76968 -33.94778 -7.755229 
98.90678 -4.916316 -7.545936 
-57.12925 0.8846241 1.97848 
85.10918 -6.424005 -0.5046152 
32.41509 19.72846 -13.23427 
56.70623 -36.12159 -13.0102 
-7.860805 -18.71199 2.632136 
40.50029 23.91618 0.7213672 
-49.33569 -47.956 -7.490918 
27.55225 -36.70732 -3.576095 
105.2221 -4.747928 10.55563 
93.85943 -24.52646 4.162333 
-61.63499 4.081204 11.3968 
-28.49368 54.53045 7.47295 
13.76518 -15.2605 10.40086 
11.89669 -40.70355 10.70553 
-27.56903 -66.77981 3.33576 
56.35411 -40.01085 21.5577 
4.595414 -59.9029 -21.48987 
68.29553 -25.7437 9.54813 
-10.8555 50.22125 6.850638 
-10.95158 -11.1942 3.690061 
103.3876 -4.494708 -10.61236 
0.3389824 -33.56598 -9.521461 
88.57523 -27.57817 22.05999 
-0.4568687 -13.79342 -2.893595 
42.40764 -39.73952 -12.33667 
-14.84318 -60.942 -3.680674 
67.66457 -26.2502 -7.071214 
-13.56076 47.45388 -5.204269 
36.28022 -40.36744 -5.797564 
74.71702 -30.52562 -29.11348 
100.2575 -15.3356 27.69041 
98.93091 0.1358805 10.91779 
60.20697 -36.60411 11.61128 
21.48462 -41.03929 4.828583 
12.17371 8.275926 7.718132 
-66.4843 32.66309 -6.035035 
16.92835 5.147553 6.750783 
98.17667 5.762985 -8.368122 
-56.11216 -20.09017 -9.323941 
77.58733 17.37408 -6.772481 
16.77274 29.18323 8.325354 
-68.08553 -10.49828 -6.217042 
-32.1258 -38.76518 -4.621235 
52.79071 -43.22874 -11.55002 
-30.22989 6.125277 -35.33422 
41.25077 -41.43365 15.13022 
-18.00167 -22.89065 -6.627757 
-31.82578 -54.05655 -1.542758 
50.37589 -29.42384 -14.10473 
-35.74231 -53.90889 8.706892 
83.15707 -19.85281 -2.782379 
-20.42093 -33.0329 -4.648502 
-74.51463 3.851202 3.081498 
23.66039 31.0121 6.322286 
84.76822 -23.23475 22.96069 
-27.89826 -64.36176 3.716953 
-53.3331 45.2319 -5.432595 
-63.13069 44.09126 6.832153 
-17.63006 51.90703 1.956359 
5.58197 -2.820654 -4.445604 
-34.44278 -57.48262 1.289971 
76.37205 -24.91015 -29.80891 
-0.8819521 -59.95843 -21.94186 
-51.05396 6.905468 -25.59163 
-40.93032 43.49061 6.739083 
-43.18671 -30.13189 -9.924253 
-54.63578 2.607013 25.64667 
113.8798 -12.94713 13.79922 
79.03898 -23.53279 10.57843 
-9.838038 55.18842 5.550764 
-13.34309 -13.96591 -4.109936 
13.85609 22.1444 5.206518 
85.57812 -16.06783 7.221502 
5.158831 -50.26045 -23.22577 
-41.39051 -54.54615 -2.810665 
97.17691 -14.29128 12.41728 
-4.417156 -50.9884 -2.035185 
-21.19775 -59.72359 7.251823 
106.9509 -8.594142 -15.15332 
-35.01007 57.35308 4.270927 
26.86554 11.73004 9.192798 
-41.99594 -29.39429 -8.909213 
94.8489 -11.20074 -25.09199 
-59.79938 -30.25938 -2.34372 
95.53039 -24.13131 -17.01944 
108.955 -10.68195 2.883486 
5.826928 -3.068821 3.832425 
-23.68805 -56.31914 -16.75263 
-31.39023 49.94688 -4.519268 
-0.5215967 -50.50312 -20.11871 
15.20407 -41.54063 -14.73579 
-43.39455 -33.37322 -0.305523 
98.47973 -14.16504 -15.48044 
105.2834 -13.89514 -10.08578 
18.27684 39.71995 -2.607915 
13.5911 -0.7532364 -13.32712 
-40.62885 -47.28245 7.555835 
21.82911 6.385418 15.1254 
92.83443 3.712934 4.728813 
13.55246 0.9226124 14.49664 
-51.14913 9.533092 1.365469 
38.80488 -41.4076 10.9073 
-18.64483 -22.22725 -13.50784 
35.37123 4.816945 6.918602 
67.31931 -20.17399 -15.65695 
-1.226891 -55.12492 -15.751 
-40.64238 -48.32857 15.00133 
48.56263 -42.26198 23.19073 
51.6598 -35.60648 13.19867 
-36.07363 -38.09419 -15.56444 
47.31559 -44.60753 -8.565924 
-43.12452 5.986865 24.13694 
4.577698 -28.10152 5.305895 
-57.00399 -2.684444 16.60661 
11.08158 -52.60654 11.57939 
17.61141 33.74316 -7.847123 
97.56048 -7.262147 -13.07556 
114.0787 -17.97265 -11.69491 
44.87836 25.32234 -5.16025 
-47.72705 -38.2975 -6.903491 
-18.15739 -67.98321 27.50399 
55.70545 -41.79998 -5.979482 
-1.25495 42.4855 14.3284 
31.3256 12.3016 -8.101372 
-33.16408 -37.98 -15.40243 
-4.40721 -61.73871 3.069276 
-53.50657 -32.81167 -4.309092 
-3.897108 -56.01615 -15.62634 
8.911298 -2.15483 4.930927 
84.6144 -2.353776 -11.69569 
0.7661853 0.8639635 1.294089 
-33.0932 -28.12342 8.013899 
5.272507 -6.529902 15.08494 
11.13071 -9.722868 -9.522176 
70.65583 -25.37456 28.44712 
68.84203 -38.15462 -18.97756 
36.33323 -36.02428 11.83677 
58.44823 -41.87358 -17.96383 
62.35043 11.03169 4.711849 
-48.72565 -38.06125 -13.76369 
-51.61202 -43.85984 -3.147881 
-31.88761 7.832667 33.62621 
107.3431 -15.45811 4.337279 
42.87575 -40.76394 3.567008 
30.12407 12.45067 13.0578 
101.0559 -8.444537 7.872037 
94.85461 3.625098 -14.80066 
18.95805 41.53227 -2.938422 
12.06684 1.761467 12.17209 
-14.96532 21.81928 -28.5202 
-40.16472 62.3839 3.451801 
-5.954486 35.18576 22.66724 
44.79142 -31.17071 -12.52593 
61.65727 -32.58866 22.60768 
95.54226 -21.91942 2.855494 
3.777573 -19.24378 -0.1256544 
90.45137 -8.765778 0.6845856 
2.827265 29.83523 6.078424 
-22.0702 -58.14672 -12.27561 
0.5198683 -44.10189 3.829755 
-8.322412 -43.59863 -12.78329 
3.1873 -52.19437 0.5893831 
73.95517 6.097696 -11.13562 
32.91201 -41.68323 7.29162 
47.59157 9.535175 5.016994 
36.94499 -50.23727 18.15879 
20.47352 8.463832 7.774035 
-26.5536 -25.89625 11.76503 
69.39317 22.79402 2.4177 
-39.63757 -56.85365 -2.313138 
-45.33849 -33.18488 -7.790275 
4.350575 28.68705 -6.348797 
66.33873 -37.20091 5.490822 
-62.01234 57.34038 -0.5471573 
-33.73133 -53.76618 -16.87224 
93.70509 -15.22718 27.25013 
82.73076 -26.20724 14.60559 
5.171401 -27.41146 15.59972 
105.414 -9.904321 -23.28831 
4.214304 47.94587 1.783217 
-46.42559 32.08917 -7.996154 
-9.770933 -65.3484 -9.592572 
-8.801873 19.63205 27.08751 
0.02348149 2.788909 3.577834 
-29.50633 -65.105 -22.98366 
-8.701977 -65.18743 -29.29734 
-62.13461 7.306358 16.28999 
-59.53949 10.16213 4.310909 
89.22012 -16.29386 5.223928 
91.67368 -3.627048 -0.1815806 
73.14263 -32.89523 19.08842 
-61.59484 -8.975948 -10.18464 
55.74762 -40.18847 1.052217 
78.54386 -28.52701 -8.649022 
-0.2908254 -26.939 -4.912928 
-35.41592 59.55305 5.468914 
40.03865 21.11199 7.847121 
-57.378 4.79186 -14.95999 
10.33101 -6.361134 -10.71816 
-23.26519 -51.2879 0.1185144 
-42.28788 -37.11439 -0.9078086 
11.13467 -1.422482 -15.39668 
97.82333 -10.72789 -18.22692 
-57.92537 -5.20371 0.7878813 
-40.92751 60.42651 7.426403 
18.47601 14.77419 6.287796 
-25.17974 -62.67912 -3.59288 
-66.44855 -36.48214 4.39723 
-4.524226 45.28521 12.86941 
-23.60781 -46.39185 -20.41088 
67.22239 -39.27312 -2.263146 
-30.2614 52.76719 4.169372 
7.679946 42.51199 0.7153844 
74.07334 -17.73327 11.0291 
23.33343 -41.58594 -11.96625 
-5.989721 -31.06648 14.68894 
-60.98524 6.400595 11.24545 
13.2672 22.52576 -9.316729 
-1.058928 44.42616 -3.463904 
97.21707 -22.7213 4.209802 
108.365 -11.60354 22.21521 
-25.04002 -39.10545 -11.19868 
34.16458 17.93838 -8.202351 
-29.46456 -51.1168 -10.92188 
-15.35225 62.09978 5.016867 
-36.01832 0.8672985 26.64854 
-54.32338 5.926015 27.70978 
31.91859 13.20362 10.86994 
-9.192865 -61.87194 28.9823 
19.94114 -5.370153 -8.810955 
19.23849 -47.03834 -27.97949 
3.935564 -57.05846 -16.00127 
-57.83233 -27.95871 -10.19324 
108.6484 -19.2059 7.875443 
-0.3039555 -42.45927 12.56762 
-65.21248 -40.69229 2.088114 
-5.527754 -56.72088 19.63417 
-9.780319 -47.39141 4.135801 
-42.7333 47.99746 12.90549 
7.64726 -6.23592 -8.966921 
-22.67715 -66.35275 12.68593 
21.35956 -1.790025 -11.13412 
-49.32236 1.488639 2.006352 
89.86001 -11.4159 -14.68827 
-22.96294 -41.29908 3.239232 
-21.84329 49.70452 0.8541377 
-36.42168 -51.0317 -4.896611 
19.28901 -46.44825 -16.4681 
13.74926 20.98761 9.871068 
-3.030855 -21.73886 -9.660707 
-47.67823 -38.58993 -11.95921 
-7.962053 -54.02168 -28.6654 
-14.82047 -58.82986 -20.4001 
-21.30801 -67.25849 26.30451 
55.95002 -38.56042 19.78221 
-65.88677 -38.64452 -3.214107 
2.377882 -33.72417 0.05090853 
-24.91963 -36.18306 12.77439 
-33.01331 -43.56779 -17.85088 
13.11542 20.28283 -8.846528 
47.73956 -39.3608 13.5884 
45.43033 -37.37927 7.601335 
-38.49672 4.653121 28.43918 
-11.75028 -56.33341 1.58574 
49.04355 -34.96152 22.86678 
79.17406 -18.79256 14.01231 
-57.27624 17.82008 5.681133 
27.31008 -0.6808083 3.440371 
84.50385 -17.43974 2.743122 
87.76139 -15.04988 0.4118275 
-58.37122 -46.59194 -10.52921 
-61.4258 3.450492 -5.839077 
-2.524348 44.94031 11.12411 
-68.55405 24.59669 0.8183241 
79.54201 -32.08163 -26.09546 
7.302606 40.54059 -5.277929 
14.03609 -46.16048 -4.432625 
29.70178 -43.51869 12.88181 
-11.45533 -16.61098 -2.748509 
-30.70531 -65.57197 -9.258552 
43.26842 -45.6343 -8.886429 
-33.4555 9.015666 -31.03402 
-11.16031 -33.1831 12.21959 
54.9379 15.18741 9.338486 
-45.20522 -29.57047 -10.78274 
85.93952 -23.08049 -31.08009 
-2.468104 52.22201 -7.63272 
-26.68906 -70.65632 18.79841 
-49.7538 1.410145 -25.91714 
-57.9955 -36.57722 6.475627 
35.73089 13.91604 -5.03699 
3.934588 -33.48282 -11.03272 
14.18245 15.51839 3.772729 
-6.960739 -28.46636 12.06439 
-9.626079 -61.20786 -30.20491 
-52.75956 44.84308 -12.6449 
46.33581 -37.30768 10.63598 
32.33852 -47.59721 25.43243 
-9.805607 32.37497 -26.82087 
-53.03685 -48.81444 5.717558 
-2.239533 -28.80385 -10.58047 
52.11415 -42.44372 5.121194 
-3.83986 3.327744 6.244016 
-43.53996 -43.69319 16.12611 
48.06142 9.623123 -5.787268 
111.4758 -9.681865 -18.38935 
31.32447 3.271165 -4.526368 
-15.02605 -54.12556 -1.195418 
5.464313 14.58826 2.944948 
74.48399 -21.3028 3.926753 
23.22401 23.99859 -6.315163 
-64.05502 47.37708 6.592205 
51.58247 21.69637 6.610188 
-49.90577 59.4796 -1.384741 
-35.11098 50.50805 1.969377 
-35.13087 -57.89464 -6.609554 
-26.47489 -66.75797 7.416634 
-71.19106 -1.777916 -2.422531 
72.84901 -27.25527 -23.92542 
-1.948559 -24.42664 -0.4572425 
30.0037 -46.60761 12.78001 
-16.23646 -54.64431 12.62803 
60.08696 -29.0027 -2.65995 
-11.61944 -12.38262 -10.72937 
-15.03569 -26.46516 -7.386055 
107.2328 -19.35001 -10.7342 
-52.70983 -11.54068 -7.134266 
-0.5381552 -27.71613 10.37098 
15.52167 0.1297415 -11.87262 
51.50743 -33.36602 16.95928 
1.611818 46.71889 -0.6723729 
63.51237 -37.36035 -17.49249 
-2.064806 -4.489027 11.66115 
11.55082 -30.2609 -1.314581 
1.301364 37.33514 -4.190762 
-65.84975 34.37127 -5.316491 
18.51829 30.8009 5.161278 
10.92105 -52.79386 -21.31196 
-53.66366 37.40845 -3.40266 
101.7438 4.747235 -2.217689 
-6.826587 -63.25996 11.69186 
-18.45174 -54.17293 -3.762322 
-64.7308 15.44726 6.66964 
68.91178 7.009335 -8.892245 
-48.49802 -46.34043 7.020477 
-55.73309 38.17402 5.124858 
-7.474518 -40.2114 2.252745 
-73.82891 -2.547672 -2.156073 
-45.94229 37.04642 -9.594847 
42.77907 -42.79934 -24.77034 
69.26038 -21.43037 -20.7309 
-12.9826 -48.01548 20.19913 
87.97741 -5.203253 -4.056483 
5.540992 33.84763 7.806454 
-6.726643 -59.04604 -8.786874 
63.59937 -28.96998 -27.57542 
-47.62265 4.355542 -21.14495 
-18.03742 -45.34491 10.84299 
22.82639 -1.528463 1.058997 
4.742644 -37.09336 -3.995447 
-57.13822 -47.26066 -1.371067 
-24.63665 54.29054 1.014193 
-34.37884 -73.49692 -16.09003 
0.1910414 -51.7459 24.69791 
35.92557 -44.30778 -3.172379 
73.66724 18.10244 -2.236374 
-46.87244 -51.62529 5.20926 
-62.21819 -26.82534 -1.711689 
2.524116 -27.29654 -4.055449 
-25.69739 -25.92411 2.743661 
-39.93933 -45.76101 15.5196 
-6.521214 -29.16191 8.094687 
-31.52831 -51.99821 4.349233 
-11.45004 -48.18016 -3.41588 
-2.888725 -32.51963 19.98985 
26.68402 9.944302 -5.935704 
80.85094 -22.94825 -28.2727 
2.733506 54.33461 6.521153 
83.14876 -9.721591 -7.026888 
-68.98937 -33.07346 8.006845 
41.98805 -29.22265 -12.13927 
-26.12223 -53.11216 14.35405 
-2.270901 42.08719 -7.303488 
-5.131137 -42.6448 -15.56847 
63.27954 -35.76243 16.1737 
26.44806 11.3215 -11.24102 
10.71346 -54.5984 29.25706 
-61.40835 -35.26528 6.693441 
-38.46843 -56.55896 -18.67994 
101.8044 -0.2890437 11.99777 
92.2949 4.84563 -8.821528 
-13.94787 -21.91208 13.13216 
73.45588 -28.07089 -13.10511 
10.71784 -43.78467 16.63207 
42.478 22.80156 5.695459 
48.06581 10.3858 -2.040641 
-1.183638 -38.93154 8.22931 
121.1624 -13.805 -2.341467 
-12.8873 -36.16693 -3.712717 
-63.70293 -8.844418 -11.45269 
102.9598 -19.04221 1.89095 
-4.315113 -55.33236 8.545787 
71.22607 9.206223 5.769053 
-6.454768 51.08779 -0.1819232 
-5.986683 40.52036 13.13458 
-19.54349 -40.8346 16.42774 
1.026992 1.61597 -2.336907 
25.01416 21.25009 1.694756 
96.37547 -5.954562 -14.61887 
-65.03889 2.052026 0.4884862 
36.43354 9.64886 -3.85248 
33.77301 18.35864 0.5902653 
-25.21421 -54.51677 -13.16626 
-2.159702 -61.20574 16.18023 
99.22633 -6.254779 14.15687 
15.44866 -54.916 29.10352 
78.42332 3.974579 -2.786064 
-60.78333 9.502838 18.99471 
73.90039 -20.12205 -16.06879 
58.18416 -41.27465 0.6465787 
4.786411 0.3120418 -1.777329 
-3.429032 -52.80373 -24.94473 
51.85209 12.22293 5.55347 
74.86066 -23.42534 -3.716469 
-59.79478 -9.653524 8.212844 
-3.521161 -44.91291 -9.82112 
-11.21833 -34.79228 4.818105 
-51.65344 63.4347 6.256617 
105.5743 -14.54831 5.512268 
41.67986 15.94513 -9.35291 
-60.7028 -35.38607 2.273442 
-29.21306 -53.80667 -15.32728 
-37.94754 39.18255 2.231771 
-16.20918 -63.24932 14.8765 
5.300477 -53.29869 -8.09957 
74.9757 -19.37902 15.94053 
-30.88262 -31.91205 -3.077299 
97.68845 -22.57615 27.10135 
39.41427 -41.04512 -17.954 
72.17215 -18.54382 -2.146721 
-41.2756 -51.58994 -4.417708 
-8.862362 -16.12547 -7.431539 
-66.77023 -3.350068 10.72171 
-47.92154 65.52314 -3.329859 
-29.00348 6.584262 -28.22046 
-0.9803538 -30.77199 -2.881323 
88.59233 12.42094 -0.5461851 
11.67848 29.03816 -8.662939 
-19.28378 -46.5842 11.99153 
-5.366962 -37.26015 -11.57738 
0.308818 -21.98421 3.883687 
21.84294 -43.10564 -0.7394376 
-30.54873 53.23635 3.2294 
-19.99051 -33.65263 -20.54281 
25.46081 -53.9305 -9.406719 
109.6529 -24.48363 -7.565578 
11.32725 43.06378 4.999737 
-46.17829 41.89173 -11.71816 
85.45872 1.355528 -9.836145 
-65.89268 -38.61096 3.058644 
14.70586 36.22468 -10.61865 
-27.50965 51.73362 -6.372239 
56.09895 -25.4458 15.41513 
21.6091 13.28411 14.19145 
87.77817 -21.05073 28.5542 
-1.210381 52.53811 8.069246 
112.3636 -12.85458 17.63457 
-67.80183 -37.60406 -1.713823 
105.8044 -12.22495 7.897726 
-47.89234 37.74877 9.79351 
93.43491 8.055338 -10.0246 
64.38714 17.16522 -6.643804 
89.14746 -30.32829 -22.23229 
-58.06158 12.83668 -6.512899 
-54.20884 -48.03201 13.17423 
-50.23736 4.359963 -11.01635 
83.97764 -26.99805 6.654175 
5.256077 -42.93863 14.84753 
-54.11071 7.757881 14.02659 
-23.46828 -46.20348 -6.710527 
71.30235 -19.16407 -1.885593 
17.83867 -51.45767 28.25365 
40.88907 -44.94753 -8.640391 
42.4339 -43.56718 -9.459227 
-59.99767 -11.66073 -1.345214 
56.7483 8.462479 -1.699525 
-40.34897 -57.37383 -9.633678 
-17.98915 -45.34594 -3.391951 
-33.98626 -70.17006 -19.77492 
27.02504 11.70426 10.8835 
89.12739 -22.24257 15.86783 
-57.44908 46.0428 -4.984656 
66.40473 -27.44918 -16.35544 
18.41957 -54.51419 8.753259 
-26.69952 -65.76622 -26.32485 
2.998212 -19.24759 3.379046 
32.14172 11.4227 -10.30725 
93.67575 -5.069277 -11.80431 
-17.14113 -67.68189 -12.59212 
25.15666 -54.1306 1.8154 
-63.41018 41.59338 3.50657 
40.23894 12.80112 0.248618 
28.46963 -51.03625 -28.65066 
-45.84284 2.06214 -24.70544 
-51.68412 -46.04566 5.940496 
65.053 9.926805 -2.534651 
12.68063 32.72527 -7.130106 
66.67148 16.90429 0.1367314 
12.26121 14.35167 -0.870251 
-69.66378 31.28056 4.559426 
-15.3089 61.29468 5.997465 
40.17328 -35.01529 0.3586631 
94.27463 -1.77823 -12.32077 
20.5927 -5.724242 4.879094 
-65.65053 38.13169 -0.190231 
-9.971092 -10.44559 5.059741 
-52.67883 -3.287226 8.177984 
-29.89713 -54.58833 -8.41854 
-18.91256 12.6019 -27.09618 
-54.07894 -8.381375 10.53581 
113.3853 -12.97684 -5.356127 
88.284 -29.26493 -2.536959 
68.91631 -23.77348 -28.48538 
-67.56979 23.92556 -2.739013 
3.128143 43.48634 -4.247376 
-10.82237 -62.02902 18.15835 
70.03778 -29.52793 4.662004 
18.03673 4.967834 -0.8655756 
-5.521413 -23.74597 10.10749 
-56.38294 51.02041 10.0989 
-54.74162 12.61475 -1.745211 
-12.06269 -48.90894 6.584358 
-15.39679 -28.79247 -2.286242 
43.83883 -33.33415 -3.606529 
-15.37913 52.73981 -5.534115 
-14.56536 46.82703 -6.639229 
74.7469 -26.18683 3.792688 
87.83917 -32.60769 23.65363 
99.19962 -18.51644 -4.550623 
-14.7354 -38.73951 18.46833 
-30.80417 -73.24721 -13.08836 
-37.02081 -28.49101 -5.914513 
-70.73837 -16.03305 -6.345968 
1.414025 -58.21632 -1.861503 
-37.29807 5.053585 24.22298 
-25.40034 -29.82701 16.9759 
-0.5156279 -10.96649 -15.63051 
-3.702538 -14.84092 8.298678 
17.52321 35.00288 -3.011768 
-67.55489 -5.624292 13.82516 
51.48126 -33.50322 25.8111 
-3.391396 -30.52188 -1.107005 
-1.430172 -21.4854 -18.67502 
12.08303 -57.05129 -17.10547 
0.3380715 -51.66692 3.655607 
-12.31827 -29.87166 -4.811026 
-46.44393 57.65513 2.267156 
32.62383 11.2636 -8.011245 
-7.97894 -31.24859 20.23866 
-51.79401 49.72972 -8.882424 
81.47356 -24.53903 -17.04452 
-0.9662898 -44.62065 4.29065 
-32.66867 -39.78818 -5.488094 
-22.877 -60.10183 -9.053085 
-25.14576 59.94657 2.532638 
110.8022 -20.85965 -18.78181 
76.02464 15.4316 -4.653134 
79.32169 -9.94387 0.7273371 
-45.30851 -39.31036 -15.29811 
28.74616 -41.76225 -22.91 
86.07001 12.29828 6.375174 
-59.85629 0.6606579 14.17984 
8.100387 -43.67204 -15.06288 
-13.16387 -18.95988 -7.348289 
19.51993 -47.37499 -29.07847 
-53.7443 9.780826 -10.43749 
8.065515 -18.49492 4.231936 
61.38322 -29.03749 4.146336 
-3.426741 -21.42667 -5.735079 
45.10509 25.57467 8.730781 
-4.128612 -61.82941 -5.205643 
31.41288 -35.9683 -11.4091 
-43.04914 30.51615 -0.4455762 
-16.44387 -68.04556 15.27067 
8.504303 36.07388 -1.781422 
84.45261 0.7979585 -12.32308 
97.21127 -0.1650906 2.907114 
-23.24716 -52.44146 -3.33386 
-26.26994 -54.09584 -19.90053 
4.193188 -59.11284 14.35548 
-3.503403 -52.34507 0.07895648 
-18.10029 -26.54281 -4.309494 
-6.052835 22.9836 2.769149 
85.68814 -19.45113 -18.84596 
-26.05962 4.507691 30.77208 
91.50368 -29.79643 -6.778937 
15.817 -7.788491 10.58279 
19.42899 28.57474 4.483252 
83.1013 -28.27095 22.31661 
28.96576 27.69147 3.585676 
95.78001 -18.28304 26.51628 
-51.8885 -37.63225 15.25229 
0.01739225 -4.503634 11.90836 
-55.37254 1.539107 10.648 
-45.30067 -43.56453 17.92867 
20.92621 -41.58973 -5.185076 
18.42677 -52.66311 4.735821 
-9.42465 -62.2439 19.36339 
44.60491 -38.33002 26.40846 
57.71243 -35.56523 26.6443 
-1.759972 -48.23296 -11.80086 
-51.36224 -17.0884 0.9683983 
47.46072 -38.94593 23.90753 
-12.75283 -62.91147 25.04181 
4.316741 43.21753 -1.26905 
14.85785 1.76204 16.52059 
88.03777 -23.03308 20.89491 
-31.6116 -33.45568 9.662895 
20.25652 -10.45923 -7.479382 
-38.41367 -37.14995 3.093866 
-28.54429 -68.43484 -27.52548 
-42.6805 55.72689 13.00846 
-10.67312 55.2948 -3.564738 
71.99141 -27.48378 -0.3111414 
-28.83042 -36.39019 -17.96747 
-30.50502 -55.12756 9.403353 
1.643679 -37.77649 4.072322 
76.63952 -32.39347 28.22232 
-67.52024 -24.65518 -4.050283 
63.00397 1.041465 0.865534 
-57.96968 5.647514 20.4808 
12.66558 -40.05422 -0.3264906 
26.58436 -40.07396 -21.7541 
-42.0243 55.87014 6.490223 
-4.973701 -63.17343 18.76258 
-26.18072 -64.83733 -24.10114 
18.00279 -46.79638 -21.69367 
7.446538 26.12466 -4.198812 
90.4396 8.324437 10.1917 
57.28245 -39.01471 8.266342 
-57.59626 -10.32059 -1.626348 
2.142541 -62.5585 12.22425 
45.97177 -38.08826 -4.594403 
106.0526 -21.17337 21.7123 
-46.3102 52.71577 8.239777 
75.27904 4.823826 -1.15898 
-46.43315 52.67208 -9.329736 
53.85226 -41.6431 -26.03815 
-15.16092 -47.71703 13.02026 
88.20463 -11.57931 1.634281 
-23.59069 11.95229 -30.59219 
-71.4698 -25.77113 -5.182066 
-37.98892 -53.07199 -20.79876 
-12.84702 62.14696 2.602259 
79.94217 -20.00786 -18.07088 
-46.38936 -0.03282183 -16.90608 
-23.94149 -32.32058 8.469257 
-19.832 -39.96672 -4.974069 
-13.74249 -66.58733 18.738 
106.9408 -8.248367 -6.794276 
-4.869734 -36.32675 -8.77511 
-36.77868 -45.9259 12.66735 
-19.76074 46.71125 0.2463142 
-56.12555 5.91147 -24.5597 
7.662673 -0.577842 7.629315 
72.2637 -23.4656 25.09937 
82.77349 2.613807 -8.680657 
-54.8161 -6.769822 -10.88185 
84.41559 11.99854 -6.478218 
18.48781 30.4194 -6.450574 
22.33696 1.013829 -1.533042 
33.4326 -33.98221 -10.52487 
26.07338 12.9196 -6.014871 
83.82407 14.55027 6.96906 
96.58791 -25.33037 -7.135362 
40.70905 -38.83465 14.775 
-65.55206 -8.107351 -12.38351 
-65.34029 19.39187 -5.29135 
88.37741 -29.58083 -12.69811 
-3.441728 -41.06079 8.008822 
72.76488 -21.47396 22.87834 
-22.42516 -65.56599 9.115112 
-3.627527 -37.93044 18.97001 
61.55894 -29.79433 1.779243 
-2.805862 -46.79172 16.38086 
39.36629 -42.85498 -30.14886 
27.2311 16.04333 13.49 
38.53124 -36.71656 -4.257978 
-53.06964 -14.76604 -3.417845 
20.44897 -7.07446 -3.42938 
-52.40046 -5.187013 -22.86225 
50.75902 -33.36726 -4.810363 
58.70754 -37.70133 -12.23053 
21.95267 42.30712 0.3539814 
95.11186 -22.87908 2.433036 
-54.15324 54.40834 10.37642 
70.63504 -34.83793 -22.43918 
-22.89309 63.77261 0.7009346 
81.86404 -21.627 -0.9257963 
-60.45424 57.62323 2.393833 
-30.17548 58.32152 -4.766107 
18.49696 11.6005 -2.954069 
40.91359 -41.3604 12.60989 
-23.63235 -37.37835 -8.584858 
-40.887 55.18855 -9.87111 
8.943172 0.09161036 8.413844 
-4.865331 -26.91557 10.07607 
-56.4025 -10.74034 1.235094 
2.162949 -59.82446 -2.480678 
21.50355 -48.74283 -20.37207 
-41.82701 51.87236 -4.578714 
43.0299 -42.96542 0.558804 
26.47267 -40.70855 -6.566937 
52.97774 -25.94366 4.033446 
21.22105 0.2395042 8.522458 
32.80646 19.10901 4.417396 
13.48443 -54.6548 -9.652858 
91.40679 -22.14212 -8.339369 
73.3687 -24.97856 -15.04632 
-38.76394 -55.50777 2.708808 
-46.11631 -51.62305 -8.496022 
-55.05285 -41.59079 -5.179413 
-25.91839 -33.77399 17.02068 
5.210668 -53.78051 -25.98351 
71.61291 -19.7033 -10.9051 
2.728922 -4.444787 -11.08036 
8.792418 18.47325 9.139963 
19.28471 -48.03049 19.07291 
7.54461 -48.323 -18.43079 
15.54587 0.1344646 -12.36703 
24.68254 10.41118 12.94023 
-66.35203 -13.48985 -4.162357 
-11.50408 -59.75096 4.499242 
95.49045 -15.08847 27.92423 
68.01048 -39.05301 23.3796 
-68.22522 -38.40151 2.015675 
-52.32653 -4.492352 -2.866652 
-1.833206 9.796748 -2.724421 
-18.72312 -56.43662 18.21423 
37.61121 3.551575 -2.419722 
97.8631 -22.95019 17.76522 
-52.50253 -34.90971 -8.21068 
-55.56154 -5.161719 19.79471 
88.39297 -5.327271 4.622217 
-31.44992 -64.32027 -9.645821 
59.70914 -27.2958 6.903376 
-18.04983 -38.46875 15.08338 
-36.71252 58.37445 -0.3866075 
-7.726445 -24.98412 -6.988241 
2.833123 0.518339 0.2596298 
69.64719 -36.9842 27.52098 
5.524009 18.12762 -1.096112 
-11.38935 -61.83047 -29.81524 
-29.84788 -44.45872 -0.6534077 
66.27129 -20.68296 4.671406 
75.62071 -18.67771 -19.09941 
12.96212 -55.53352 -12.83825 
95.3097 -10.36505 15.25709 
-50.29181 1.406382 -0.03930814 
3.570381 49.44192 11.4382 
-49.08319 54.0995 7.864497 
-40.66204 -35.15203 16.6964 
89.4762 -4.772683 -0.7974195 
102.202 -11.37806 -4.024595 
-48.73252 6.229259 30.35676 
-39.58026 59.92987 -6.954253 
-37.32402 -68.19109 1.182258 
-46.55411 41.44409 0.4981852 
98.84974 -12.86547 13.94656 
-12.29755 -47.90295 -3.549402 
-42.84028 57.00049 1.394224 
-46.5857 59.91145 -3.911004 
28.21031 -46.42165 16.41105 
-15.69432 -41.24335 -19.978 
4.799389 -16.99148 15.42245 
17.98249 -54.34 13.57392 
-41.38281 36.05643 0.101174 
2.180838 -56.90667 9.661104 
51.3642 18.18444 7.960076 
105.8283 -14.28802 -8.841167 
-45.34641 -50.18503 -4.475444 
-47.8826 4.201921 18.60242 
6.181168 -48.00391 -24.80931 
-1.524805 43.33797 8.315707 
4.197285 -33.60144 -3.707183 
23.08219 -3.28545 6.31841 
64.64251 -22.63243 17.01361 
88.40657 -24.48991 -28.03501 
41.64377 29.1474 4.899085 
-58.56335 3.893535 -11.37963 
4.558879 -45.36745 -17.69139 
-19.32312 -51.75301 5.921621 
73.05042 -0.9544208 1.981465 
0.8318827 1.840595 -11.373 
78.29405 -16.32562 -5.101514 
-28.42493 -60.86538 11.98032 
-4.108345 -35.4241 13.24474 
74.33984 -29.67211 16.27872 
20.21425 43.68664 7.166403 
79.04692 -29.7858 -9.784458 
15.39739 -28.07606 -2.970652 
5.319295 42.99208 -10.39458 
89.79965 -19.4284 -16.30102 
108.8639 -0.01470741 4.689322 
1.463377 46.25012 -13.09086 
-23.40388 51.53961 5.808057 
89.51513 -1.048141 4.594177 
-39.64548 53.3679 11.91253 
80.14174 7.885031 -9.77722 
-36.4579 50.89505 2.956755 
95.71981 -18.46568 -24.08592 
110.9711 -0.7541141 4.047883 
-52.11699 -0.07807292 -10.86604 
76.58855 11.13886 -11.12002 
38.78542 -30.79328 -10.47044 
57.02672 13.06703 -8.308211 
-63.55809 9.574016 -11.51241 
-64.35033 -12.09248 12.52715 
-6.727447 30.79151 -24.4662 
1.791168 -52.68505 -28.07074 
66.55596 -32.74904 -4.225302 
77.02132 -14.05185 4.400304 
-26.94794 -39.96354 -1.085449 
-64.50173 -33.14106 8.774701 
-25.16323 -55.02251 -2.857112 
13.66771 33.29032 7.814522 
49.82312 -37.69561 3.030457 
111.9771 -19.40155 20.48144 
8.362817 -50.98412 13.73451 
-26.46657 -39.9921 -14.59934 
-8.127581 -19.94329 -4.842528 
60.43337 -24.10033 -18.38773 
-69.80638 2.720622 12.64474 
64.50704 -37.71505 -13.20993 
79.8186 11.92432 -2.088364 
-37.6245 -70.30257 -11.84922 
-50.76535 -3.858346 -24.48805 
4.991237 46.80072 -5.14789 
-60.74024 -0.4337358 -13.1119 
111.3892 -22.55724 0.8485184 
-8.324784 -51.29772 -8.242682 
-2.067013 -54.52162 -8.964603 
-1.301806 -60.22628 -8.873858 
17.11678 -48.80499 28.99803 
-37.79853 3.125278 -35.49191 
-2.693978 -28.29204 -10.96078 
38.32359 17.58486 -10.29565 
-58.91549 -31.89416 -4.837384 
-19.61426 -43.93794 18.4992 
5.278561 -12.62572 -4.349554 
88.34721 -16.03303 8.064911 
96.2047 -16.39442 13.79522 
50.34781 7.039701 -4.026277 
-28.00194 -45.46117 6.030675 
-54.93966 -6.877523 4.076004 
-12.52199 -36.19653 15.26615 
-71.92522 13.20389 -2.024884 
95.75494 7.587295 -7.113846 
102.1328 -9.736931 -20.43548 
-35.77561 5.856516 24.29624 
7.537165 -36.40733 -11.80742 
-25.92903 -50.44688 1.290252 
64.63029 -30.97787 7.761582 
-24.02832 -70.51806 1.211547 
-37.34058 -46.02908 -18.06597 
-43.04498 -56.08954 -3.241549 
61.00344 -37.24776 -19.45545 
77.99104 19.62873 1.199321 
12.31434 -39.85297 0.9920321 
4.33351 -54.46878 21.2402 
96.63338 -22.71939 -5.691994 
18.34158 -2.87358 -1.792309 
-57.49744 -3.584407 11.9865 
0.3655514 -14.25717 -14.96175 
73.64213 -34.64261 -12.63918 
-65.46772 8.665136 9.486176 
-22.73445 -54.11639 13.43642 
-16.02379 -68.17482 -5.380052 
-57.98727 7.011459 -13.53641 
31.6525 -34.69066 -22.53783 
97.74238 -20.85038 -20.46152 
-51.67397 -47.71152 6.896904 
-32.30513 -29.90052 -1.247939 
-33.8984 -32.97993 14.78567 
-29.24214 -55.50804 -22.28087 
25.92509 5.42965 0.5629145 
-42.83676 -58.96718 2.015869 
-37.46145 46.78723 -0.03047443 
64.28362 -33.15554 -20.01831 
-0.5452158 -3.473194 2.624158 
-64.10427 15.00654 -8.231631 
-65.86211 -31.40719 0.5269405 
76.92039 -26.20968 -6.789654 
118.16 -11.55162 -4.518615 
62.26112 -25.54142 -6.907479 
-26.01649 -59.79022 4.03849 
24.05697 -37.7909 7.677289 
4.200847 -29.32191 16.88909 
-72.98084 19.2331 0.8341547 
-63.38132 -42.43869 2.241315 
-49.20529 -2.234315 21.36934 
93.12015 -17.86458 13.52128 
24.81274 -42.87774 -10.39638 
69.2635 -30.25347 -29.75987 
-67.17592 -15.52731 -8.216673 
84.81081 -31.81576 12.09481 
-7.290143 51.87271 -0.228347 
89.23929 -21.02194 11.90388 
-16.2219 -66.56961 -21.14167 
34.41646 -34.76528 -11.59703 
-5.763818 20.7909 -3.139222 
53.17866 11.03715 7.684523 
-18.90954 -23.09257 7.812377 
73.07287 -32.43014 23.20805 
15.20861 -42.26964 20.69217 
0.3113759 40.21744 -16.23562 
-15.90049 16.08449 -31.01936 
6.400458 -0.6367567 -3.147078 
-27.78429 -28.62963 8.626622 
63.88422 -23.15246 -16.34296 
-18.38547 -34.54967 -1.675008 
-52.57736 -46.28033 13.0006 
-19.06411 64.1329 2.761374 
40.72884 -39.25449 0.06444968 
77.87873 6.19944 11.04529 
13.32432 45.07064 0.9276796 
17.47872 -54.39142 9.853999 
-43.10532 4.386054 -34.24143 
-9.815486 -54.60328 14.8092 
89.67202 -16.26694 9.810427 
22.53211 22.58558 -8.201997 
56.55219 -35.98368 -19.90033 
103.2618 -10.5111 16.75343 
47.11657 14.83017 8.392973 
-51.36645 -9.134862 -2.296152 
-26.09192 -35.67484 20.05314 
87.11141 -30.40335 -3.060771 
104.5804 -9.80442 -8.298544 
68.49722 -33.04844 9.64087 
37.098 -33.15631 2.262096 
14.38503 17.34999 -5.705806 
-15.02442 -57.97526 -1.803551 
-41.52964 -42.51454 -8.168371 
4.459328 -10.90634 15.83536 
-58.30647 44.14508 1.418741 
8.888144 -6.933641 -8.757747 
-0.1167835 -10.5964 -3.731327 
94.27488 -2.293929 13.77258 
23.35231 -40.51414 -17.66009 
-9.957481 23.94086 27.18276 
-14.46558 -49.04194 -16.33317 
-25.89026 4.906183 -30.23102 
28.81029 -2.724142 2.553925 
75.39662 18.21529 -5.117842 
92.54382 -24.08471 8.945321 
-29.14133 -47.77299 8.746086 
33.05364 -51.39374 2.718702 
43.22784 -38.23491 -9.73025 
76.33189 -17.53792 1.153806 
65.70914 14.3017 0.82118 
14.34596 -7.035819 9.542692 
21.33553 38.78291 -5.824048 
-40.94675 -40.55186 3.473001 
97.50592 -28.45141 -4.186904 
43.4842 -43.97005 -17.7454 
70.13981 -27.37032 -17.25141 
-44.74255 -48.56576 2.631196 
-62.13207 36.24884 -8.784677 
-57.66342 -28.85387 12.42792 
9.740733 -41.9055 12.7061 
107.0321 -24.36246 -2.319447 
29.6038 24.96969 1.281771 
74.8187 -8.044426 -6.179786 
-62.34856 -11.2063 6.750308 
-66.04787 -27.87981 -3.634885 
68.98864 11.91386 -0.3590555 
-4.113309 -47.92244 4.549881 
19.8364 -44.27229 0.1197057 
-43.53135 57.85593 2.416996 
45.11252 -35.26047 6.623964 
-53.09276 -14.17571 -7.00331 
16.98313 -2.373385 14.63778 
54.2809 -34.52383 30.0055 
45.18831 -46.22034 12.28809 
-17.89635 -68.40221 -1.172684 
-15.71246 52.26604 0.2664687 
101.8727 -8.463953 19.72494 
-45.45043 43.65826 3.806814 
-46.85286 36.72157 8.989023 
90.50042 -11.74816 -11.59931 
-63.52475 14.81136 0.5851409 
105.0721 3.580549 2.053311 
-32.51085 -40.76706 12.07247 
-15.29062 -23.62969 -5.445932 
63.05866 -27.19264 -24.71028 
26.89625 26.94772 5.362666 
33.94997 2.900285 0.818943 
-29.81437 2.587415 27.15861 
2.535768 -46.27127 -0.04565739 
-29.24306 -59.7236 -18.92419 
30.4094 25.49159 4.310319 
-56.10573 -49.24026 -3.206214 
-45.92522 -48.0002 8.945458 
-33.32498 -46.81661 -8.726564 
-10.04956 -47.56295 11.50462 
-38.5197 -35.56905 11.85683 
33.23296 -44.5682 18.54139 
42.02538 -31.05698 3.429534 
99.06829 -22.153 21.29461 
5.755715 -18.2068 -8.664478 
2.98448 -46.11039 -22.59417 
65.34788 -35.27614 -9.270629 
48.1681 -35.38094 -16.04128 
81.30309 -29.36966 26.6546 
-6.693873 41.81989 4.614663 
-17.88175 -45.03546 -8.271112 
12.13976 -2.502452 -9.606962 
11.79329 -11.68082 1.095483 
-11.80024 -42.91946 17.05951 
54.21529 -43.56842 21.17499 
95.92101 6.257147 8.470413 
78.29254 8.295032 7.944607 
14.67343 25.95193 -3.476271 
-52.44368 -53.02361 -8.507294 
32.37222 6.647374 10.29355 
-0.5233761 -48.61685 2.764646 
20.63681 -49.50443 24.80646 
-45.54757 -46.42772 -10.87351 
96.96442 -11.74177 19.20883 
-25.42327 -51.38984 -6.786225 
23.75155 -38.41748 -14.86675 
-2.343075 29.45138 25.41973 
82.05746 -13.53553 -3.632146 
75.17803 -28.96578 -12.98261 
11.89044 -33.3132 -5.101605 
-18.9357 -44.77407 1.250255 
60.12388 -35.85258 10.18786 
-19.08693 -41.75888 -1.760257 
-32.35812 -49.48099 -11.19437 
72.4698 1.851862 4.53847 
-8.433993 -63.58839 -27.24914 
-5.431612 -62.36444 -0.7950792 
27.75138 -47.45098 13.72887 
-59.13129 25.75891 -4.95292 
-40.7272 -41.61311 -6.722495 
30.9393 -43.195 16.88751 
-16.17276 -26.27235 -18.70148 
-63.82166 1.707869 -11.08359 
-26.00293 -45.36239 19.8091 
89.21678 -19.27828 3.679807 
-4.524095 42.29354 -0.1457003 
112.667 -17.49838 -2.850401 
2.847538 -8.831595 -13.39621 
-29.18611 -68.93929 -24.95656 
-45.15132 41.96715 4.674225 
58.60684 -34.90939 28.47895 
54.77303 18.87226 -6.539389 
94.85719 -0.05818412 -6.824586 
-42.69889 -35.31217 8.458475 
11.44244 -28.555 0.9753538 
39.35988 -35.86511 -5.222052 
17.5862 -56.22925 17.52481 
-33.43127 -46.50379 9.450333 
54.52464 -36.20501 15.96328 
-20.17178 -27.74794 -14.03421 
-7.843851 -40.42631 -9.469851 
44.70239 -38.50063 -6.599731 
58.66831 12.67221 -4.151459 
-13.1699 -38.29027 -5.718489 
26.83729 8.259413 0.5168895 
-31.215 -62.25632 -3.432977 
-4.403954 -62.57166 -28.54611 
85.88032 -6.784928 -11.33925 
82.44569 10.29379 -6.402932 
-1.91179 -58.13994 11.88347 
108.8828 -10.46743 -10.0801 
88.95798 3.065317 7.262147 
18.73729 8.451672 12.22737 
-49.87617 -42.64182 8.14517 
-64.0626 -18.61812 -7.329288 
-14.04186 15.85619 -27.7527 
47.98493 -37.15905 -10.39573 
-10.20883 -14.44485 -3.325214 
-3.559085 49.87808 7.606804 
-5.857755 -62.69785 -19.42719 
29.1282 31.26644 1.677363 
68.52316 -22.71097 8.968652 
1.379901 -5.874547 -14.6267 
-60.51495 -4.454899 -11.62839 
-47.16142 3.216487 -27.69988 
110.8046 -21.79531 16.48338 
-59.41696 9.469315 11.75388 
22.92291 -2.150841 6.559662 
-14.73523 -19.4541 1.965687 
72.5878 0.8774313 -7.627149 
31.09736 6.293601 8.302986 
94.63033 -4.500182 -8.703082 
84.22314 -24.78062 16.12282 
-26.409 -42.75104 16.99234 
96.59772 -13.63635 6.781754 
-20.24188 -33.72123 -12.92719 
72.31658 -37.73027 13.70112 
-20.18034 -46.90611 -21.88523 
60.62321 -39.4792 15.58221 
24.34937 -52.2937 23.41282 
19.08007 -50.41456 24.86009 
-50.05431 -44.28875 -13.84732 
54.36883 -34.85535 4.547231 
-69.28654 14.8469 -0.05362977 
88.23969 -16.47742 20.51198 
-9.836427 -43.37616 -10.92595 
-69.34545 -19.9654 -8.728131 
0.1853482 22.33929 2.598729 
-45.71194 41.22329 -0.2450263 
94.46362 -29.59839 25.25785 
-24.09198 -45.29568 -0.7698337 
49.74675 17.62477 -5.96408 
-10.29849 -37.23657 -4.224424 
-45.03864 -55.56444 12.61404 
94.13361 -19.00283 6.867016 
59.26529 -35.30702 -19.38019 
47.57666 15.82405 11.9334 
17.56783 -8.444901 8.087427 
9.043736 30.14242 9.122515 
12.68423 -46.73929 -11.64277 
24.40014 -46.12746 -7.18562 
-26.25365 -49.03697 8.394635 
36.69879 -33.14408 13.31184 
-39.65499 2.281302 -27.00569 
30.30433 19.22883 -12.13593 
-54.83239 50.61028 -2.547399 
99.7406 -22.40884 -20.38805 
-60.48251 -42.33152 8.672412 
-19.58029 -43.69958 -20.54898 
36.55274 -38.86435 29.61079 
40.98579 -48.39005 24.59565 
84.16613 7.410029 6.656628 
-39.58577 -43.23674 -10.65281 
64.65429 -38.60177 -23.56589 
109.3952 -2.31174 12.77438 
-55.03682 4.055353 -16.42633 
-38.7808 -48.58455 -13.31518 
-42.46655 -0.4240135 -27.79913 
107.9333 -12.89764 13.76829 
-52.40656 38.13561 -4.672124 
-33.32837 53.5395 7.753561 
93.45857 -17.29815 2.515308 
1.229953 -33.26767 8.386159 
-40.16197 -41.75021 -17.85226 
16.71012 47.40833 2.101855 
52.00002 -36.28536 -13.63204 
-36.83943 -71.24229 -8.245423 
87.31927 9.675367 -1.403614 
7.899229 -57.59494 14.15759 
-55.53025 -25.34478 -6.961609 
4.98873 2.233991 1.162506 
49.80063 -31.92827 -4.643311 
-40.11744 51.06109 0.9947938 
112.1258 -16.85909 -16.20148 
-0.6569554 -36.42507 12.33427 
-37.43214 48.7611 -10.64054 
-15.23208 -31.48798 3.945195 
51.72563 -36.90287 -4.522748 
36.34227 -46.59323 -23.35195 
83.49192 -16.63871 10.12226 
16.83547 13.25035 2.18443 
-42.73418 -45.22783 -7.962383 
35.18956 24.77766 -6.271958 
-49.72782 2.235772 20.6961 
-1.433877 -47.59138 15.55139 
54.65097 -41.34593 -21.76989 
75.65385 -20.48158 -24.68944 
93.05826 5.411249 7.76721 
54.74374 -33.11964 20.35124 
42.42912 18.58486 0.7337165 
83.79842 -0.1014489 4.371589 
1.856117 -12.88591 16.66336 
-60.08524 -2.917922 22.80867 
-7.92898 -26.79128 -17.72116 
-11.16117 -7.509105 -4.727644 
-61.89671 39.81059 -1.918544 
-48.512 -34.71746 5.732044 
-2.503703 -42.21599 -5.099081 
13.43136 -48.34817 -25.14851 
39.3019 -47.91542 -21.6934 
12.73478 10.60979 -8.064775 
-45.48422 -44.61804 18.84481 
-56.91519 -3.412708 15.96642 
-29.65368 -30.80637 15.0458 
100.0335 -7.136796 18.84348 
6.275402 -29.8472 4.141765 
-22.68729 -67.14306 2.532994 
8.412927 35.65335 0.1532913 
58.08961 18.17686 -6.702196 
33.18164 -43.53871 -3.819428 
53.84818 -32.5272 -16.32459 
23.33974 -44.82227 11.4557 
-9.380198 -58.91786 -10.22232 
-38.7808 -41.50101 13.41407 
6.269855 -5.617634 -6.82506 
-17.58946 49.59855 6.899014 
-47.65345 -24.63021 2.937088 
11.62407 25.76378 -2.473421 
-14.12776 -67.1179 16.94351 
-1.158992 21.87838 5.627956 
14.91459 -33.47348 5.860797 
-53.8934 -14.4016 -5.610155 
23.92826 -40.29081 -6.68368 
97.57595 -15.80011 -11.87949 
-52.68009 -19.72116 1.891523 
106.0133 1.187722 -0.1692366 
-38.74694 -44.80751 12.55111 
4.898696 -23.34254 -0.3627196 
-9.331921 28.2448 22.99286 
92.05961 -11.42513 -11.79805 
-28.06334 -40.38431 -16.82149 
-59.33876 57.17223 4.319894 
8.883814 -41.23672 -7.839701 
113.3397 -11.56096 -6.52145 
73.60052 -21.1717 -5.63551 
-37.4873 34.64574 -0.8761191 
-10.39191 -53.53262 1.428987 
90.52412 -5.353113 3.854395 
35.75039 -42.4602 -21.82176 
42.89318 8.345427 -7.409685 
52.48923 -39.74142 10.46228 
-57.72726 8.448108 -13.05037 
59.22446 -36.96669 -22.51381 
-52.64535 4.264163 -23.05058 
-44.27957 8.263685 26.90354 
-60.56115 -1.958636 -10.14722 
-4.777108 -38.84476 -9.389458 
85.65733 -2.933061 1.998816 
0.2497975 -28.15436 13.54774 
-44.24746 4.437678 -30.77987 
-56.32594 13.22848 -0.6208144 
-64.96283 -39.67538 5.345195 
-9.748891 -49.75425 2.024046 
76.46975 -11.85383 9.883595 
73.06301 -37.09975 -5.353714 
-18.9591 -30.83094 17.31893 
49.17448 25.24412 0.9764652 
7.858393 -50.034 11.25414 
91.29979 -18.8728 4.92421 
-50.62744 9.42576 12.79048 
48.22263 -43.21974 6.506644 
70.98831 8.182607 2.952118 
17.03295 -44.86562 -7.1971 
32.44607 -49.60706 -11.55786 
52.15584 16.62528 12.2444 
-17.38565 -31.1217 19.79144 
-63.8994 15.98783 -0.0669817 
78.74872 -20.3386 -19.26198 
-34.17397 -37.63823 -17.70584 
-48.62645 -53.63759 -10.87275 
12.68118 31.62408 7.395868 
29.22062 7.201222 -2.010351 
90.73998 -18.11997 5.077316 
17.86551 4.604623 -1.07282 
-24.81149 -37.07833 12.53916 
-31.13247 -42.97566 20.69261 
85.48399 -16.17878 -16.8934 
-53.28429 -16.38827 -5.093462 
12.70167 45.21574 6.255957 
87.54739 -3.893234 2.325726 
16.65757 0.02603273 10.16937 
13.96142 -52.30964 26.97913 
-9.063008 -21.1366 -17.63533 
-47.52103 1.338307 19.36275 
-16.37181 20.37975 29.51675 
108.1989 -6.127221 -13.0854 
-14.02636 -29.55435 9.216502 
-32.64816 -53.68883 -15.68419 
-28.76184 -25.30258 -4.249277 
14.43826 -8.503749 -7.817918 
-48.68213 52.30655 -10.66352 
108.5092 -9.604844 -1.563231 
56.93481 -32.62465 13.1274 
35.03495 -39.7754 23.2529 
-32.44646 -58.51617 -1.874098 
76.44113 -9.07406 9.726767 
-33.05336 50.20077 -4.728725 
16.49305 -56.74094 11.56545 
-10.11103 -18.68134 -10.92472 
-37.23819 -53.30584 -10.13559 
-13.50269 -40.55748 10.70776 
-23.18139 -65.72923 -28.18462 
-33.46806 -70.6585 -11.7421 
-21.95253 -62.72596 -25.93397 
52.00019 -28.27983 -13.71345 
-64.58524 -39.50469 -2.121733 
-49.86844 -48.77689 -16.72686 
34.21162 -48.68106 8.676424 
-56.41721 35.56614 4.11851 
81.34789 -29.5469 -14.11651 
92.69994 -0.04694452 -14.69677 
22.98472 -44.18497 14.90923 
66.98131 -24.41187 2.611288 
6.810253 52.67814 0.3678669 
81.80552 9.763312 -3.913298 
-23.96853 -44.07444 7.633107 
-46.86535 3.672726 22.1596 
77.64586 2.705688 -3.767654 
-27.27082 -43.26373 12.93029 
-18.30416 -51.62314 -9.489149 
-10.34734 -37.66144 8.560512 
56.19254 -34.41705 -18.60505 
8.291565 -17.33611 6.994264 
8.694568 -46.78631 -22.74865 
59.55326 18.08638 8.645611 
42.16463 -29.91601 4.304593 
-2.166258 -54.12696 12.16099 
101.0012 4.618382 3.30918 
21.93766 38.23755 -3.775422 
-55.40239 -8.689636 -0.3654033 
22.7842 21.16286 8.327549 
-26.78408 7.945726 34.39974 
10.24343 -37.65885 2.156396 
7.487792 -11.87617 14.04355 
-46.21666 -0.1298601 28.85824 
21.02999 -15.39504 -0.07959956 
-16.72443 -37.92918 -7.419683 
-64.10071 51.63884 5.228184 
30.17904 -45.80229 -19.88287 
-20.11365 -46.09902 19.93381 
-15.80128 -20.53245 -13.47684 
36.66577 -48.38468 -19.2987 
11.4774 12.44425 -5.886765 
102.6983 1.368143 8.508206 
-12.49037 -64.31656 -27.35112 
12.87242 3.454322 -4.690561 
40.04561 22.94305 -7.11462 
15.45313 -27.38072 -5.708348 
-37.05499 -49.10699 -17.64272 
-33.51656 -59.26336 -5.027916 
-13.8937 16.32044 31.53314 
30.8056 -49.48788 15.68203 
-61.03083 -33.36808 5.468209 
13.37524 -34.31738 1.952747 
-60.82371 -14.60182 3.041571 
3.538846 -8.164288 5.735149 
-14.95035 -36.18649 -19.77371 
-6.459279 -31.52993 16.50354 
8.642197 -52.78883 25.77053 
-16.46391 -64.31026 20.88815 
9.202191 -1.731136 4.031466 
-19.04073 -67.45572 16.52227 
-58.74685 -41.57061 14.07338 
-4.897704 -60.41265 15.01835 
-61.00314 -29.9316 -10.99077 
-10.03242 24.37339 29.59949 
92.23344 -26.54903 -7.611417 
-9.791601 -17.571 1.269775 
108.6471 -12.98273 2.631809 
-30.15623 -37.38655 19.82532 
-40.97339 -0.6618461 -22.582 
10.67116 15.20528 10.49951 
16.67895 39.46589 -9.009943 
-41.61436 -55.66097 -12.11294 
-21.12297 8.78617 -27.84944 
-38.30425 -52.22643 -21.54384 
79.29081 -22.29842 7.991914 
-44.26421 52.96023 -0.02595807 
-14.43766 -37.87572 -6.870249 
-55.71523 -51.38247 4.073766 
7.54815 -22.2154 14.54644 
9.253284 -47.11197 -5.387005 
-21.81078 -28.81093 -14.2689 
51.17547 -30.76783 0.8028466 
-28.06614 -55.39684 -13.06135 
-41.53077 -47.40777 -19.70663 
-32.14781 -29.04513 10.92557 
27.62965 1.072736 4.27534 
-0.7383257 -58.30848 -21.80873 
90.80505 -10.84386 -18.02079 
27.83696 16.54951 0.3186654 
-47.73898 5.832503 -30.80207 
41.88336 22.27157 -10.38108 
68.41283 21.55624 3.300272 
57.39605 17.21719 4.436189 
-39.6995 -37.3922 -7.568501 
-41.60478 5.748569 24.0174 
64.90162 3.878515 -3.08123 
-0.6440418 -24.63329 11.94013 
71.72289 -32.75126 -14.2661 
-33.02349 -43.61116 2.28246 
-19.06726 -25.90812 3.53608 
74.15021 9.868335 -11.69568 
-34.57315 -60.57499 -10.73005 
0.9365942 7.989356 -5.76563 
-14.25681 -27.85697 -10.31376 
9.304622 25.46 5.635623 
-41.48352 41.16046 6.879305 
-23.93257 64.21823 -1.028841 
-21.08944 -46.5363 5.337378 
78.33036 -28.77699 29.97718 
-6.278786 -37.73349 -16.83276 
-0.9532424 8.036132 -1.363803 
103.1816 -22.85174 -17.21131 
98.11816 -12.70497 -15.4204 
-66.74253 5.091451 -8.299725 
