1434
-0.01505057 0.303524 0.2024804 
0.1288741 0.2199434 0.2002267 
-0.1869328 -0.1729549 -0.01764584 
-0.3007419 0.3381066 -0.02948111 
-0.1768322 0.04054395 0.04811841 
-0.2788975 0.1738792 -0.08814524 
-0.1516635 0.004818778 -0.05443545 
-0.1467919 -0.4848292 -0.04020815 
-0.09944937 -0.15108 -0.06423468 
-0.1623427 -0.164491 -0.02471782 
0.2447022 0.01083757 -0.01882713 
0.2727591 0.2873018 0.03220081 
-0.07089576 -0.03398019 0.1698846 
0.08365849 -0.07056542 -0.09886824 
-0.1765511 0.2673069 0.07666743 
-0.005654936 -0.2046415 0.1484568 
0.2350021 0.03543828 -0.1045751 
0.1537981 -0.08430949 0.06220733 
-0.0389753 0.3474052 -0.1696131 
0.07238035 -0.2771956 -0.1125584 
-0.1646664 -0.1883914 -0.2639152 
-0.2461683 -0.3033789 0.02655228 
-0.04236244 -0.2797232 -0.2764303 
-0.072808 -0.4724264 -0.2098709 
0.1565853 -0.01551509 0.1861008 
0.1278971 -0.2640849 0.1379386 
-0.1056448 -0.1639826 -0.2200601 
-0.08233452 -0.009123282 -0.1517693 
-0.1846548 -0.04658664 -0.1844615 
0.03958349 0.03808598 0.256299 
0.1481422 0.4292392 -0.02765189 
-0.1798069 0.2684362 0.05981909 
0.02635617 0.04179545 -0.234586 
-0.1790903 0.1111176 0.1108999 
-0.06692846 -0.1929566 -0.2391787 
0.09928834 0.02807051 0.253592 
-0.2446928 -0.4092797 -0.02433043 
-0.2806506 -0.3160907 -0.0366365 
-0.09894109 -0.2180729 0.04624479 
-0.06135444 0.146002 0.2055032 
-0.1962916 -0.4092524 0.04583368 
0.2283143 0.1319794 -0.1604245 
0.006560474 0.3185019 0.1967204 
-0.0105117 0.1421034 0.2775967 
-0.2515666 -0.06564356 -0.1684417 
-0.06302386 -0.2711623 -0.2842039 
0.1891259 0.186677 0.1714639 
-0.01462131 -0.2969499 -0.2620193 
0.1375639 -0.2293708 0.1385127 
0.1793315 0.04947617 0.2193188 
0.1407957 0.1985962 -0.2309075 
-0.1285917 0.1634911 -0.2107651 
0.1342119 -0.08413073 -0.04429115 
0.2526812 0.485407 -0.04463296 
-0.2008655 -0.001979452 -0.1365128 
0.1401403 0.1798173 0.1956522 
0.125203 -0.4498276 -0.001343455 
-0.1448351 -0.1473398 -0.06186044 
-0.1152446 -0.3629143 -0.277889 
-0.09309627 0.3504398 0.1079436 
-0.2078429 -0.08321106 -0.1936758 
0.1582441 0.0938838 -0.2168942 
0.1490046 0.4307408 -0.006617555 
0.07805125 0.4055993 -0.07416958 
-0.2215869 0.1504829 -0.1565536 
0.255642 0.2724932 -0.1087655 
0.1960169 0.3930641 0.01874145 
-0.06684116 0.09453906 0.2190425 
-0.1103779 0.05603186 0.1682709 
-0.3113015 0.31266 -0.07450572 
-0.06255242 -0.4295967 0.1218067 
-0.2249895 -0.2515746 0.02991818 
0.136631 0.0236225 0.2377217 
0.2301864 0.1499886 0.1640687 
0.01824553 -0.347938 -0.2212827 
0.2435798 0.1079856 -0.133661 
0.2191352 0.1527449 -0.1755618 
-0.1967106 -0.1987462 -0.2786188 
0.217237 0.09603982 -0.1669371 
-0.2363552 -0.2940103 0.03361912 
-0.08246533 -0.2037821 0.04664219 
0.1376761 -0.1298805 0.09916247 
-0.2023189 0.1656461 -0.1706076 
-0.1148146 0.03522196 0.1703808 
0.2522484 0.04363152 -0.07436343 
-0.1305371 -0.4207411 -0.2468007 
0.0007463205 -0.1744636 -0.09376711 
0.03713341 0.103373 -0.2590058 
0.2157707 0.2569463 0.150941 
-0.2059808 -0.437506 0.01981475 
-0.01334652 -0.3338666 -0.2580222 
0.3113017 0.3609108 -0.06406932 
0.1834965 0.3114918 -0.1510463 
-0.2010326 -0.4771771 -0.04385922 
0.1462224 0.1423756 0.2011163 
-0.03245942 -0.06658201 -0.08697233 
0.1791768 0.09116257 -0.2020976 
0.1299871 -0.04684954 0.1589587 
-0.190934 0.1552085 -0.1746976 
0.01806451 0.2685491 0.2226644 
-0.2275159 -0.3898157 -0.1961546 
-0.0126569 0.0760926 0.2765617 
-0.3190444 0.2837545 -0.03237236 
-0.2449754 -0.3931946 -0.002498887 
-0.07976434 0.01538063 0.2087213 
0.03176869 -0.06547998 -0.115211 
-0.2131924 -0.4721593 -0.0949635 
0.1092394 -0.05791087 -0.1100875 
0.1351031 -0.4689163 -0.1156516 
0.173141 0.3858972 -0.1193836 
-0.247771 -0.1683921 -0.1114408 
-0.03007489 -0.1030002 0.01071732 
-0.06789084 -0.486919 -0.1714983 
0.1617205 0.1844683 -0.2214856 
0.07843984 0.1895522 -0.2562417 
0.1448466 0.4250456 -0.04181883 
-0.1170427 -0.01323145 -0.1019533 
0.1719993 0.3692246 0.05551021 
0.05637808 -0.3081275 -0.126598 
-0.1378605 0.07712286 0.1485186 
-0.01059401 0.2910507 0.2103834 
-0.2514192 -0.4094697 -0.08580765 
-0.04924329 -0.4864634 0.02892113 
0.2366436 0.4444334 0.01054173 
-0.2105959 0.3400325 -0.08931803 
-0.1011262 0.3630762 0.0646828 
-0.1535818 0.003763234 0.06647547 
0.2026561 0.001422184 -0.1150864 
0.04067612 -0.1108413 -0.05914107 
-0.2654402 -0.06545793 -0.1750666 
-0.2415097 -0.1985245 -0.02585042 
-0.2347673 0.3074817 -0.1261352 
-0.1728281 0.2069763 0.1303521 
-0.215698 0.06879232 -0.1100032 
-0.03665604 -0.06536676 0.1406225 
-0.09722637 0.3142529 -0.1697028 
0.1807236 0.4550336 -0.02680744 
0.1566141 -0.06527511 -0.04328776 
0.06388622 -0.3511211 0.1051936 
0.1756454 -0.2262597 0.04401325 
0.06115366 -0.1143259 -0.06040134 
-0.2822799 -0.1554064 -0.1741795 
0.176353 0.3400333 0.1141643 
-0.003697976 -0.08297893 -0.06857788 
0.09520583 -0.09440297 -0.0656365 
-0.08570111 0.291179 0.1802586 
0.02470037 0.4115418 -0.04167007 
-0.01902588 -0.4001711 0.117974 
0.2631563 0.09296349 -0.09073104 
-0.02587631 -0.2579947 -0.2622658 
0.1841966 -0.05228618 -0.008223576 
0.01132997 -0.1677861 0.1501091 
-0.06126657 -0.4607734 0.1360993 
0.2748308 0.1996628 -0.05657186 
0.1440271 -0.3127319 0.0146512 
0.03776965 -0.3540595 -0.1685429 
-0.006093129 -0.460749 0.155462 
-0.2017553 -0.4589751 -0.172301 
0.268138 0.2508681 0.0584981 
0.1718628 -0.2009077 0.01799775 
0.275331 0.2673072 -0.08812637 
0.2449684 0.2583587 0.1022355 
0.2204379 0.08305609 -0.1591533 
0.1143163 -0.4268514 0.0100721 
0.1367047 0.2959885 -0.1930579 
-0.1000482 0.3716738 0.001921353 
-0.1875048 -0.1539316 -0.05427591 
0.05619963 -0.06063798 0.1763617 
-0.1073993 -0.1486009 -0.1745515 
0.2694684 0.06017873 0.05828987 
-0.02263173 -0.4808682 -0.01570719 
0.2853944 0.4773356 -0.0425428 
-0.2859999 0.165591 -0.03621659 
0.008921979 0.02642727 -0.2228538 
0.1473747 -0.04299244 -0.1078781 
0.1577797 -0.469228 -0.03424945 
0.2789762 0.1469941 -0.04780917 
-0.1316676 -0.1507228 -0.05352303 
-0.08000337 0.2213891 0.2047944 
-0.2334613 0.312245 -0.01867517 
-0.2680691 0.1465353 -0.06157993 
-0.03423055 0.1650448 0.2294854 
-0.1778223 0.2056944 -0.1779876 
-0.0494396 -0.4258364 0.1314867 
-0.2891397 -0.2770388 -0.0754844 
-0.1424913 -0.157734 -0.2185598 
-0.3134274 0.3247575 -0.06408186 
0.254413 0.203851 0.1197472 
0.1533062 0.4277316 0.01972054 
-0.2060127 -0.1392518 -0.2002275 
-0.02489108 0.3893247 0.09444544 
0.1644588 0.3961464 0.0368767 
-0.01120407 -0.4887296 0.05623848 
0.3195392 0.3386749 -0.01243703 
-0.2084565 0.05652517 -0.1909646 
-0.1823175 -0.4795248 -0.001964714 
0.2082232 0.007796359 0.1499546 
-0.07838294 -0.479376 -0.05736612 
-0.1529678 -0.4195653 0.08801194 
-0.06765902 -0.1726984 0.00136461 
-0.05184166 0.04490446 -0.2167474 
0.1158149 -0.1278217 -0.04463764 
0.1499539 -0.0134025 -0.1540262 
0.2417327 0.4572957 -0.07707299 
-0.2436905 0.323907 -0.01939868 
-0.005901754 -0.2792383 0.1511309 
0.03824951 0.1009148 0.2854911 
-0.08623594 0.04457584 0.208258 
-0.1321075 -0.1382706 -0.1383124 
0.03995219 0.2362317 -0.2524035 
-0.02221602 -0.1583098 -0.0261531 
0.1451235 -0.4228518 -0.03272631 
-0.1637926 -0.1671996 -0.2396207 
-0.02778208 -0.01861718 0.2193953 
0.05395921 0.4078623 -0.06790913 
-0.04911716 -0.1726763 -0.1896506 
-0.08038552 -0.1544582 -0.1704698 
-0.1839085 0.03965047 -0.04969234 
0.1105859 0.3505038 -0.1607109 
-0.191354 -0.02921434 -0.1584852 
-0.09209891 -0.04594833 -0.0448452 
-0.253367 -0.3523082 0.01190067 
0.3045638 0.4683163 -0.02377557 
-0.001561191 -0.0765267 -0.0833755 
-0.1863922 -0.2033246 0.01567549 
0.2592327 0.03804071 -0.033648 
-0.2889392 -0.08136352 -0.2136924 
-0.1461392 -0.1701166 -0.2404539 
0.2566712 0.398387 -0.1075906 
-0.04025489 -0.03260002 -0.1453922 
0.2916946 0.2333805 0.004561757 
-0.05278821 -0.4183105 -0.2380449 
-0.1104972 -0.01328511 -0.1156082 
-0.05620411 -0.1909192 0.06248649 
-0.2147541 0.08557179 -0.09655599 
-0.2847185 0.3575592 -0.05470286 
-0.2155624 -0.4629183 -0.133491 
0.09189311 -0.09092922 0.1313561 
0.03995195 0.3942757 0.105322 
-0.1304634 0.2265321 0.1717517 
-0.1940458 0.2537529 0.004203267 
-0.2140132 -0.1729828 -0.03440037 
0.1984686 0.2818422 0.1553226 
-0.2953958 -0.2095631 -0.1795383 
-0.02921713 -0.1641365 -0.05454519 
0.08574318 -0.311014 -0.09707209 
-0.1164849 0.3510289 0.06424841 
0.2811343 0.1928946 -0.02019958 
0.2251754 0.02979817 -0.1156935 
-0.1382016 0.002872542 -0.1044485 
0.2657454 0.1023016 0.1111874 
-0.04665459 -0.4873702 0.04711258 
0.1010491 -0.3549501 0.06281131 
0.09344205 -0.4870096 -0.01941007 
-0.009839126 0.407518 -0.02630244 
-0.03183452 -0.1618299 -0.03960813 
-0.2971146 0.2249823 -0.09422462 
-0.2240336 0.346297 -0.08149983 
0.1867555 0.3295412 -0.1430104 
0.05015761 0.2696309 0.2217058 
-0.2611071 0.3164814 -0.02437001 
-0.1838393 0.272182 0.03402692 
-0.02575465 -0.4838659 0.000419968 
-0.2242645 0.2343372 -0.1593172 
-0.145312 -0.4850896 -0.06254576 
0.01172113 -0.01657802 -0.1880189 
-0.1221786 -0.03365885 0.05410285 
-0.1426986 -0.01126314 -0.007911777 
-0.008662184 -0.4133418 -0.2077434 
0.1112424 0.07945766 -0.2367101 
-0.2292035 -0.3685386 0.03344067 
-0.2853302 -0.2887477 -0.151661 
-0.046092 0.3858052 0.08551376 
0.2691529 0.217675 -0.07673608 
-0.2702006 -0.2901919 -0.2015196 
-0.2164203 0.03666369 -0.1777482 
0.1686579 -0.06714383 0.008590701 
-0.1321972 0.3497791 -0.05598515 
-0.1278716 0.3558789 -0.02522023 
-0.0421303 -0.258174 0.1227412 
-0.220391 0.05372894 -0.1803788 
-0.216323 -0.3870801 -0.2127107 
-0.2011758 -0.44711 -0.183588 
-0.1045731 -0.1873359 0.01183552 
-0.07031023 -0.07063179 0.05798206 
-0.01362021 0.3248023 -0.2039229 
0.1089811 -0.02594254 -0.1649306 
-0.216954 -0.1677553 -0.2771881 
-0.05621088 -0.18085 0.04570343 
-0.08563643 -0.4868374 0.0772963 
0.08887386 -0.4092029 -0.1087251 
0.1571587 0.43439 -0.04151301 
0.2615822 0.1991458 -0.09885689 
0.1310098 0.09298113 0.2583434 
0.3198996 0.3791759 -0.041833 
0.01977593 0.2834456 0.2172705 
-0.3030786 -0.1511368 -0.223212 
-0.02302874 -0.210648 0.1328499 
-0.06302997 0.3598469 -0.1296267 
0.161657 0.07980867 -0.2107238 
0.05253718 0.323615 0.1943351 
-0.08052573 0.2459808 -0.2234211 
-0.1874186 0.2570448 0.0450702 
0.1207332 -0.3669545 -0.04232458 
0.1234666 0.2082323 -0.2370044 
-0.01059664 -0.4267125 -0.2004665 
0.2162197 0.3732846 -0.1256244 
-0.1268514 -0.008885616 -0.09046616 
0.008274443 0.4119511 -0.01087593 
0.1269311 -0.3300154 0.04526382 
-0.03482978 -0.4594203 -0.1972209 
-0.06222926 -0.07318873 0.07315256 
0.237501 -0.00188886 0.01013768 
-0.01918516 -0.4852777 0.1404762 
-0.07501855 0.06003096 -0.2155786 
0.05658582 -0.04480263 -0.1535966 
-0.1125307 0.1443886 -0.2202693 
0.1308479 -0.06611408 0.119677 
0.1337444 -0.1967619 0.1393861 
-0.1753819 -0.1333114 -0.1376932 
-0.1479062 0.3320811 -0.09415086 
-0.2177739 -0.06814241 -0.2508027 
-0.02604428 -0.3798789 0.1081323 
-0.1935408 0.03579208 -0.1127631 
-0.199538 0.03704513 -0.1943059 
-0.02532179 -0.01393844 -0.1769292 
0.2993594 0.3919184 -0.07960722 
0.1145643 -0.3131294 0.1048066 
0.1312607 -0.4623218 -0.007576292 
0.1631731 0.2626015 0.1882585 
0.08240211 0.1425569 -0.2570243 
-0.02004572 0.2717922 0.2164933 
-0.2358519 -0.009565677 -0.2113745 
0.1769811 0.1282715 0.1966115 
0.02406457 -0.3162118 -0.2200783 
-0.2765317 -0.2192976 -0.07519004 
-0.09510198 0.06322131 0.1809578 
0.2580671 0.3543042 -0.1156311 
-0.2307424 -0.1189635 -0.1864785 
-0.1444535 0.1138175 -0.1953425 
-0.02728473 -0.2767825 -0.2681065 
0.02735236 -0.4639864 0.1353922 
-0.1702987 0.1904998 -0.1833187 
0.2259026 0.2472217 -0.1443703 
0.04109205 -0.4865615 0.05653225 
-0.008187154 -0.396677 -0.2218374 
-0.2199143 -0.07535503 -0.1733115 
-0.1082518 0.3410794 0.1043205 
0.0227517 -0.3658003 -0.2035232 
-0.11901 -0.2086737 -0.2713827 
-0.1054786 -0.2620537 -0.2905997 
0.1299419 -0.2226695 -0.0607491 
-0.04233068 0.08045798 -0.2390126 
-0.01906724 -0.4891794 0.1018296 
0.04996516 0.3573057 0.1636622 
-0.1404756 -0.4733665 0.1018223 
-0.00959896 0.3290894 0.1861101 
0.02379125 -0.4882852 0.05477323 
0.0140292 -0.4876745 -0.07639496 
-0.2768591 -0.1884361 -0.1467042 
0.09216887 -0.440887 0.0297622 
-0.06155563 -0.1574042 -0.1127535 
0.03988326 -0.1332841 -0.05684243 
-0.1617343 -0.4402897 0.09614435 
0.07528794 -0.3648781 -0.1017932 
-0.0005476702 -0.256296 -0.2383391 
0.1651676 -0.2617501 -0.00617059 
-0.2374506 0.07394612 -0.1864694 
0.1397755 -0.2903287 0.09890209 
0.1741366 0.3576269 0.07908219 
-0.02798611 -0.0903119 0.08830415 
0.09765694 -0.420874 0.02785207 
0.07373437 0.262073 -0.2371651 
0.05966494 0.2207702 0.2283394 
-0.13169 0.2001006 0.1709194 
0.1135901 0.4097781 -0.05695582 
0.1238378 -0.3906678 -0.0117161 
-0.1524776 0.2627539 0.1344326 
-0.1613014 0.2614576 0.1222006 
-0.2187919 -0.04449104 -0.1573758 
0.05915485 0.3965073 0.09962136 
0.2492185 0.4755511 0.01111697 
-0.02036468 -0.3877401 -0.2396227 
-0.1235128 -0.02096598 0.1113165 
-0.2653066 -0.2368117 -0.02145142 
-0.01917538 0.381545 0.1159083 
-0.1310391 0.1482548 -0.2086799 
0.1331467 0.08010915 -0.2270552 
-0.07274769 0.0839184 -0.2285382 
-0.01105864 0.2514579 -0.2466132 
-0.119624 -0.4865862 0.06697844 
0.2147314 0.4763295 0.009312676 
-0.2636204 -0.2640174 -0.003886874 
-0.1979766 -0.4420919 0.03521976 
0.04854565 -0.4886891 -0.06055325 
-0.08984715 -0.2870631 0.07450624 
-0.06528689 0.08454093 0.2308922 
-0.1707588 -0.2889144 -0.2829346 
0.2538581 0.3433129 0.006259677 
-0.01614874 -0.1554174 0.1106343 
-0.2969548 -0.1846673 -0.1838728 
-0.116184 -0.3000218 -0.2920296 
0.04296488 -0.4807684 -0.1657765 
0.05991814 0.4081735 0.0643426 
0.1485621 0.3937466 0.04814097 
-0.003411144 0.3136401 -0.2150873 
0.04661145 -0.1938366 0.1711764 
-0.2903721 -0.2808808 -0.1144732 
-0.2943607 -0.1071346 -0.2393524 
-0.08806306 -0.1819709 0.01056517 
0.2353502 0.04201806 0.1416487 
0.1056404 0.366552 -0.1446584 
-0.1060273 -0.3336761 0.06491094 
0.1839252 -0.05107679 0.05388342 
-0.1357273 0.01530057 -0.1516324 
-0.1547827 -0.4011274 0.07233128 
0.03827642 -0.4730812 -0.1790563 
0.1947944 0.4324156 -0.09061809 
-0.1672906 -0.3892413 0.06736916 
0.1124438 0.1521916 0.2177864 
-0.2243369 -0.1370782 -0.1842826 
0.1889774 0.1191324 0.1991847 
-0.05344545 -0.3804253 0.08959486 
-0.04714176 -0.4737543 -0.0580172 
-0.2010269 -0.3089222 0.05611438 
0.1960949 0.3352534 0.07764605 
-0.1999683 -0.4815384 -0.09627728 
-0.2812102 -0.3141651 -0.1405302 
0.09636952 -0.4676062 0.0175507 
-0.02954038 -0.333307 -0.2676508 
0.2251894 0.3818894 0.004485704 
-0.2202056 -0.2367603 0.025946 
0.1599708 0.2260713 -0.2130307 
0.2181644 0.330673 0.027531 
0.3046706 0.271485 0.002644518 
0.07072614 -0.4850481 -0.1210119 
0.07799598 -0.4885643 -0.04402542 
-0.2676859 0.3195007 -0.1075343 
-0.1026673 -0.4866646 0.06407493 
0.1306027 0.2387865 -0.2248863 
0.1064406 -0.335318 0.08225489 
0.008692752 0.26372 -0.2440523 
0.1216915 -0.03346416 0.1898258 
-0.2644474 -0.189842 -0.09774745 
0.1104978 0.4084712 0.04034414 
-0.2528962 -0.290205 0.01741246 
0.1340466 -0.1328706 -0.02660742 
0.2209427 0.006449257 -0.08925934 
0.2776707 0.1098817 -0.04214171 
-0.07008991 -0.4831645 -0.1954528 
-0.02751403 -0.172197 -0.1296346 
0.1384795 -0.4745301 -0.0172618 
0.09519734 -0.1091985 0.1329601 
0.04279276 -0.4792429 0.0963497 
-0.2851432 0.18767 -0.09045782 
-0.00277914 -0.487159 -0.08685879 
0.1403871 -0.07541361 0.09617209 
0.06103226 -0.03290079 -0.17106 
0.2491104 0.01862913 0.06204739 
-0.1110756 -0.4367527 -0.240014 
-0.08936699 -0.05300095 0.09462045 
-0.005219985 -0.1872075 -0.14232 
0.157867 0.02267652 0.2220665 
0.2091152 -0.00329106 -0.09639918 
0.1307813 0.330581 0.1696419 
-0.0470803 -0.1666657 0.02653353 
0.2136426 0.243927 -0.1593786 
0.06116482 -0.114929 0.1434725 
0.22424 0.2912183 0.105036 
-0.06467458 -0.06679109 0.09846756 
-0.1915397 -0.02773294 -0.2200035 
0.1828027 0.450292 0.01809843 
0.1554858 0.368737 0.09015656 
-0.1532815 0.3283179 0.03160419 
0.2196423 0.09593045 0.1877653 
0.03019463 -0.4875358 -0.1467418 
0.2407866 0.1586123 -0.1442883 
-0.1696846 0.01990257 0.01860421 
0.0407127 -0.03875652 -0.1647031 
0.05365153 0.3766898 0.1381657 
-0.2083123 0.1775045 0.02149716 
-0.03024827 -0.4773619 0.147641 
-0.2427082 -0.1270241 -0.2817889 
0.1389798 -0.04054273 -0.1206044 
0.0006550664 -0.2345975 -0.2194098 
0.2192474 0.2355801 0.1559727 
0.02228865 -0.2266916 -0.1521259 
-0.03365903 -0.03035015 0.2035288 
-0.2004374 -0.4283213 -0.1998896 
-0.2064095 0.01850071 -0.2038711 
0.2546909 0.4427274 -0.0871015 
-0.2032828 -0.1758952 -0.0215546 
-0.2085315 0.1865437 0.008813701 
-0.1180705 0.3601504 0.01683298 
-0.2354825 -0.07019054 -0.1681433 
-0.1091912 -0.4107267 -0.255947 
-0.1495978 -0.4160324 -0.2449593 
0.04379962 -0.2634718 0.1683334 
-0.1989144 -0.01304697 -0.2236456 
-0.1670002 0.1832106 0.1412737 
-0.007670076 0.3769326 0.1281286 
0.3075252 0.2781428 -0.01233764 
-0.2287814 -0.4069969 0.01163139 
0.05546251 0.09897636 -0.2569055 
-0.1294456 -0.02748065 0.02398096 
0.2832843 0.1467811 0.02127369 
-0.2824167 -0.2746275 -0.1801652 
0.09512042 0.02286553 -0.2153677 
0.1087334 0.3812524 0.1157714 
-0.2186256 -0.02905425 -0.2386306 
0.05606542 0.2938624 -0.2252558 
-0.2487464 0.1178217 -0.04962564 
-0.1469572 -0.187938 -0.2606242 
-0.2057575 0.04046952 -0.1216566 
-0.1217918 0.3300982 0.1019266 
-0.1689021 -0.01173821 -0.1664289 
-0.1722474 0.123838 0.1224118 
-0.2841988 -0.2257687 -0.1056806 
-0.05955301 0.3683829 -0.1141846 
0.0181093 -0.3317379 -0.2274744 
-0.02223136 -0.06361261 -0.09983367 
0.05353247 -0.1471179 -0.0622053 
0.07019954 -0.2041498 -0.09234485 
-0.2748142 -0.3507183 -0.03692379 
-0.09691343 -0.3222548 -0.2894819 
0.207859 0.2784639 -0.1495529 
0.2183741 0.2896837 0.1208981 
-0.1888753 0.06490153 0.04608977 
-0.2067465 -0.2584561 0.04283225 
-0.1071078 0.1261895 -0.2222151 
-0.06564382 -0.06254558 -0.05471745 
0.1015921 0.2452914 -0.2351226 
-0.2633329 -0.06279254 -0.24977 
-0.2702287 -0.1897849 -0.131059 
0.2119233 0.2742106 0.1459602 
0.03688761 0.06038726 -0.2447 
-0.09554434 0.2249599 -0.2212241 
-0.288103 -0.2971451 -0.1171032 
0.2677673 0.1763507 0.09497666 
0.01357871 -0.4884292 0.04355518 
0.01367938 0.07744225 -0.2503158 
0.2977169 0.251144 0.007813481 
-0.1029624 0.2005393 -0.22265 
0.1455492 0.2988083 0.1846212 
-0.02764026 -0.1012563 0.06748801 
-0.09879799 -0.03537254 0.1310502 
-0.2444202 0.1180332 0.007675101 
-0.1388681 0.2683149 -0.1745526 
-0.2690745 0.3000705 -0.02487504 
0.1477352 0.2694647 0.1936554 
0.05689541 0.2041189 0.2286193 
-0.2424864 -0.2151717 -0.27689 
0.1226783 -0.2966968 0.1161289 
-0.1824732 0.04074211 0.01520262 
-0.1583789 0.02613639 0.09873804 
-0.1547798 0.001785695 0.05121873 
-0.07421594 0.0971356 0.2028172 
-0.1720044 -0.1360073 -0.1529592 
0.1672383 -0.1777653 0.02489263 
-0.09820168 -0.4883598 -0.04992391 
0.2184562 0.2890388 -0.1376148 
0.004293238 0.3493263 -0.1832191 
-0.0534647 0.2936559 0.1959204 
-0.1865654 0.1214677 0.1014628 
0.2964129 0.2748187 -0.06089266 
-0.1114331 -0.4715697 -0.2179087 
-0.2555198 -0.3667411 -0.1646914 
-0.1492981 0.09979621 -0.1923577 
-0.2331024 0.2761728 -0.02540731 
-0.04671007 -0.1604958 -0.03586972 
-0.2112501 0.1586475 0.01939303 
0.2997331 0.4230025 -0.06869253 
0.07652889 0.3574081 -0.1674771 
0.2671101 0.1801597 -0.08837883 
0.07379864 0.2905737 -0.2232548 
-0.1073257 -0.4864145 -0.07807189 
0.0230168 0.3933881 -0.114254 
-0.2766875 -0.147131 -0.2774717 
0.168198 -0.2605931 0.06335707 
-0.03392862 -0.1726063 -0.1548628 
-0.1375107 -0.1408129 -0.170462 
0.2437279 0.2474746 0.1168021 
-0.005872464 -0.04447468 0.1971397 
0.2605078 0.1070157 -0.101352 
0.1237131 -0.3472948 0.009244883 
-0.1576355 0.01231648 -0.1761318 
0.2773484 0.08205473 0.0302236 
-0.2045945 0.06529312 -0.02974904 
-0.1886847 -0.2228974 0.03063177 
-0.2264633 0.09071448 -0.01971697 
-0.2905539 0.2344897 -0.1076499 
-0.1879313 0.07321884 0.06425708 
0.2245972 0.2099558 -0.1597921 
0.2021258 0.01095227 -0.1291059 
0.01506777 -0.4883883 0.003552256 
-0.1820175 0.05814308 0.06499402 
0.2055747 0.4683778 -0.04422789 
0.07798052 -0.2593876 -0.1071483 
0.2896236 0.4110259 -0.08295547 
0.161464 -0.2819359 0.0205217 
0.1663122 -0.01363442 -0.1387581 
-0.2374986 -0.1721459 -0.2859341 
-0.2502753 -0.4063516 -0.04231608 
0.2706904 0.06095133 -0.01801139 
-0.1366228 -0.2120575 -0.2757753 
-0.170108 0.2491513 0.1150493 
-0.2399937 0.1094676 -0.1769599 
-0.06236355 -0.1541021 -0.09507878 
-0.04176488 -0.08981948 0.03988727 
0.09566952 0.2376399 0.21754 
-0.2863951 -0.259354 -0.1769224 
-0.0008850705 -0.3322191 0.1343505 
-0.1478124 -0.0009790804 0.08083235 
-0.2906022 0.283582 -0.1072216 
0.0276104 -0.4188271 -0.1733376 
-0.2216838 0.3533035 -0.04147528 
-0.2027895 0.1308295 0.06075298 
-0.139071 0.3233542 -0.1161345 
0.00239335 -0.09166099 -0.05771851 
-0.2811951 -0.1951207 -0.2541247 
0.008521549 -0.2059038 0.1585933 
0.2258714 0.3472791 0.006894583 
0.04227531 0.1188641 0.2901003 
-0.1889239 0.04548452 -0.03391559 
0.2312265 0.2762942 0.1122593 
-0.0259264 -0.143902 0.03603889 
-0.276383 -0.3157514 -0.0220898 
0.3125332 0.3384448 -0.0570641 
-0.2996002 -0.1730325 -0.2300601 
0.141697 0.3468262 0.1450909 
0.1594677 -0.255305 -0.02128456 
0.06374855 -0.07393619 -0.09772918 
-0.09575526 0.12565 0.175697 
-0.2637475 -0.3366875 -0.1776508 
-0.0320307 0.3922817 -0.07624476 
0.05965917 -0.2860507 -0.1217941 
0.1461325 -0.1144287 -0.0009773578 
-0.1991311 -0.1426674 -0.2136225 
-0.1301973 -0.009935249 -0.07468718 
0.07619779 0.0552402 0.2744446 
-0.1812586 0.03344418 -0.2003789 
0.1080522 -0.1994787 0.1600772 
-0.2241632 -0.1798984 -0.2839789 
-0.04344829 -0.4882223 0.06883571 
0.3113254 0.2932042 -0.01615798 
-0.1154505 0.2713234 -0.1904308 
0.0205221 0.4132748 -0.0002309699 
-0.2460975 0.2851315 -0.02577796 
-0.2743104 -0.2232835 -0.05936379 
-0.1704494 -0.486463 -0.06424332 
0.06005486 0.4139858 0.02071119 
-0.2511998 -0.1944647 -0.04555102 
0.1508246 0.3268113 0.1603995 
-0.2344665 0.1155736 -0.1039981 
0.1827142 -0.02606235 0.1313917 
-0.01055255 0.4035554 -0.0531714 
0.03839338 0.02116509 0.2528579 
-0.03322899 -0.3992431 -0.2410215 
-0.06104667 -0.3029822 0.1015012 
-0.09019686 -0.1714004 -0.2251678 
0.2008197 0.4460852 -0.07852215 
0.03988324 -0.4048357 -0.1394003 
0.1652767 0.4380701 0.01721866 
-0.03900151 0.3807675 -0.1051549 
0.3172484 0.3369454 -0.04264146 
-0.1737761 -0.4303617 0.07541326 
-0.1564384 0.1907746 -0.1902524 
-0.009290789 -0.2978745 0.1450252 
-0.0326725 -0.07273616 -0.07072263 
0.2614822 0.1765287 -0.1040479 
0.08188762 -0.3850661 0.06365133 
0.09132955 -0.156065 0.1558542 
0.1583054 0.4102152 -0.09211992 
-0.1923553 -0.1457559 -0.1950272 
-0.1506185 0.02838467 0.1181067 
-0.01449745 0.4073819 -0.007086491 
0.2037975 0.4735794 -0.001735072 
0.1171893 -0.2997766 -0.06842155 
0.1975294 0.449018 0.02405959 
-0.1536734 0.002690387 -0.02745321 
0.1709674 -0.06257964 -0.007874059 
-0.1597362 0.0712437 -0.1907595 
0.003271504 -0.3939594 -0.2098979 
-0.004704975 0.3677356 0.1443898 
0.08774464 0.3625635 0.1525882 
-0.2849832 -0.2228629 -0.1206158 
-0.04435705 0.223973 -0.2449538 
-0.2606157 -0.3199186 0.009539459 
0.1949748 0.2181577 -0.1879497 
0.2347256 0.03026208 0.1274389 
0.1101098 -0.1680913 0.1503946 
-0.04377935 0.06057609 0.2586654 
-0.07691995 -0.2978466 0.08488096 
0.2097317 0.08220251 -0.170783 
0.1429457 -0.1498895 -0.01999605 
-0.08853063 -0.2951613 -0.2915979 
0.08258082 -0.2022528 0.1706194 
0.199938 -0.02743916 -0.06079229 
-0.001295973 -0.07006347 -0.09772436 
-0.3011541 0.3278134 -0.08037989 
-0.0599512 -0.1730866 0.01992488 
-0.04291242 -0.1895381 0.08687384 
-0.2224677 0.0386497 -0.1630569 
0.1131285 -0.3158889 -0.06752685 
-0.136571 -0.4732309 -0.2129505 
-0.2337547 -0.1559401 -0.2836483 
0.1706137 0.07751222 0.231571 
-0.1813636 -0.4857677 -0.08501139 
-0.1365623 -0.4864632 0.06144769 
0.03852884 -0.3861382 -0.1438791 
-0.1216801 0.338929 0.08475857 
-0.1296094 0.1103657 0.1510361 
-0.1679787 -0.4861016 -0.03653618 
-0.0523903 0.1387997 0.2159306 
-0.04972363 -0.1674992 -0.1699684 
-0.04535624 0.3601623 -0.1462814 
-0.1997239 0.04921107 -0.1089369 
-0.2560095 -0.2469993 -0.2521803 
0.2890534 0.2802982 0.03252792 
-0.06621733 -0.2024322 0.06282742 
0.07866521 -0.1086408 0.1387325 
0.07531067 -0.454049 -0.1321549 
0.2474664 0.3240728 0.01248056 
0.0004858141 -0.3131129 0.1440763 
0.168641 -0.1900547 0.06843627 
0.1382701 0.01176301 0.2278597 
0.1398809 0.4020568 -0.0932696 
-0.02470128 -0.1430639 0.002474206 
0.1419472 -0.3128887 -0.00948297 
0.001839975 -0.05972877 0.1741501 
-0.2448641 -0.2627768 -0.254221 
0.07947117 0.3767959 0.134829 
-0.223776 0.08339053 -0.1101316 
-0.1688813 0.0192565 -0.02611023 
0.1093355 0.2277569 0.2114302 
-0.02688756 -0.1069123 0.05326269 
0.3096709 0.3759131 -0.0680664 
-0.0562632 -0.4760039 0.1321198 
-0.2357595 0.09638318 -0.1192634 
-0.2841541 -0.2546135 -0.1929723 
0.1832895 0.360333 -0.1331919 
0.1700529 -0.2424889 0.07224802 
-0.1432389 0.2272729 0.1609076 
-0.2396729 0.3548265 -0.06542157 
0.01438251 -0.4409399 -0.1961443 
-0.08760454 0.06871746 -0.2146778 
0.08310058 -0.2019835 -0.0844022 
-0.1267236 -0.02230328 -0.03090923 
-0.2333906 0.2288349 -0.0224988 
0.02326253 -0.00787327 -0.1985466 
0.1101181 -0.2146959 0.1608285 
-0.2662877 -0.2006542 -0.07282965 
-0.08539813 -0.2143436 -0.2662954 
0.1572627 -0.270153 -0.01929019 
0.1808783 0.2473572 0.1801645 
-0.1146721 -0.03260004 0.098219 
0.1592699 -0.4535076 -0.03497253 
-0.04871578 0.03071166 -0.2084847 
-0.008264358 -0.4721539 -0.02139402 
0.07260679 -0.2843126 0.1564929 
-0.08328609 -0.0594753 -0.006535182 
0.0329725 -0.288847 -0.1417555 
-0.02400181 -0.329636 0.1262873 
-0.01715506 0.1776306 -0.2580702 
0.03314459 -0.303984 -0.136695 
0.03944654 -0.4304313 -0.1685955 
-0.2001553 -0.4550605 0.01732862 
-0.109368 0.3322378 0.1172002 
-0.1555346 -0.4412375 -0.2274307 
-0.01344606 -0.3416887 0.1253216 
-0.09777324 0.0396461 -0.1913558 
0.1177269 0.1751194 -0.2447069 
-0.1001775 -0.225454 -0.2768891 
0.09754775 0.1475056 0.2403415 
-0.1186231 -0.2832651 0.05810927 
0.1965767 -0.02581695 0.1044554 
0.1996059 0.4542923 -0.06565255 
0.2070829 0.3275212 0.06463948 
-0.1222897 0.1267421 -0.2130809 
-0.004721006 0.3999029 0.07687245 
0.2002611 0.2933517 0.1432618 
0.2038442 -0.02874194 -0.04485464 
-0.2096442 -0.2382167 -0.2812947 
-0.1559174 -0.2116004 0.02573442 
-0.1945318 0.2057179 0.08140247 
0.2512434 0.4150793 -0.1044056 
0.08817916 -0.05387172 0.1766833 
-0.1798635 0.254236 0.0845343 
-0.2373682 0.05952093 -0.1636577 
0.0875863 -0.01801934 0.2300702 
0.1248768 -0.1434837 -0.03876795 
-0.07481603 -0.4022518 -0.2571665 
-0.2271834 -0.1488868 -0.1610043 
0.053112 -0.2458287 0.1726595 
-0.08711167 0.08952944 -0.2236538 
-0.09020431 -0.1476 -0.1229265 
-0.299288 -0.1918748 -0.1974851 
-0.2315948 -0.4455612 -0.09499145 
0.3119113 0.4368017 -0.007139294 
-0.2939971 0.1797293 -0.03865576 
0.2996204 0.271403 0.0218759 
-0.09677379 0.1401859 0.1710579 
-0.04684681 -0.2899107 0.1168642 
-0.1453782 -0.1513379 -0.2023257 
0.1578924 0.2017773 -0.2207053 
0.05264722 -0.4102133 -0.1283469 
0.2010692 0.1246633 0.1904259 
0.09226862 -0.48282 0.006885143 
0.1083864 -0.2922092 -0.07929391 
-0.1082193 0.02965347 -0.1770197 
-0.04148768 -0.165788 -0.1194772 
0.1986718 0.04549584 0.1993541 
-0.1179902 0.2545639 -0.1972848 
-0.2188472 -0.4620634 -0.05567162 
0.003559098 0.06352635 0.2771488 
0.006007214 0.05328895 -0.2381813 
0.008878453 -0.2018242 -0.1485126 
0.2533848 0.06717697 -0.0981178 
0.1712205 0.0315528 0.2177244 
-0.1470673 -0.4825805 -0.1931595 
0.09750636 0.0831226 0.2758991 
-0.1886852 -0.1501816 -0.2217453 
-0.03217123 -0.2141539 -0.2361255 
0.2456227 0.1421666 0.1491212 
-0.2512263 -0.3957482 -0.01884715 
0.01580614 -0.4756013 -0.1945084 
0.03989892 0.3665929 0.1521372 
0.1406064 -0.248813 0.1310466 
0.1857148 0.1498664 -0.2061043 
-0.04894947 -0.4006715 0.09860978 
0.2776138 0.1653658 0.06368442 
-0.05526435 0.2710899 -0.22562 
0.2292644 0.4892556 -0.01710786 
0.1709585 0.1961355 -0.2129632 
-0.02553859 -0.08979757 -0.03790925 
-0.1260909 -0.1392932 -0.1046982 
0.1979569 0.2350391 -0.1798873 
0.1589177 -0.1894749 -0.01310761 
0.09592382 -0.3586715 -0.0872226 
-0.03443357 -0.156336 0.005741742 
0.2347387 0.280622 0.09612544 
0.04619357 0.3463155 0.1749618 
-0.08583772 0.3419214 -0.1411641 
-0.2013734 -0.3660069 -0.240381 
0.2802278 0.180258 0.04440147 
0.145519 0.2217633 0.1934583 
-0.2395231 0.2379849 -0.152537 
0.06103983 -0.3223401 -0.1184872 
0.2415979 0.1870248 -0.1408046 
-0.1132894 -0.4290538 0.1118863 
0.1967819 0.4047328 -0.1122034 
-0.07491177 0.3842645 -0.02261391 
0.07234328 -0.3782915 0.07921214 
-0.2784192 -0.2041388 -0.1292673 
-0.01101971 0.2285802 -0.2526891 
0.09882636 -0.0276565 0.2153782 
-0.2445091 -0.2009518 -0.2815975 
0.00462417 0.4053132 -0.06077737 
0.1591111 0.3702352 -0.128708 
0.1437364 0.05462415 -0.2116979 
-0.03844537 -0.1683101 -0.1395655 
-0.04333661 0.1447965 0.2275238 
-0.1561249 0.01396132 -0.08647313 
-0.2060142 0.1226721 0.04525314 
-0.1941544 -0.1443565 -0.1767004 
0.3114697 0.4159917 -0.0556456 
0.2353919 0.06022438 -0.1265199 
-0.03420018 -0.4089161 0.1215002 
-0.06242678 -0.002241449 -0.1718896 
-0.03497694 -0.004678177 0.230734 
0.2735033 0.06529776 0.02533454 
-0.08636784 0.006515047 -0.1679445 
-0.06808907 -0.4716877 -0.01134781 
0.1145051 0.2812502 0.2046199 
0.248457 0.06144463 0.1302193 
0.131272 -0.09243768 0.09852163 
-0.234459 -0.001062 -0.1943233 
-0.1860099 -0.4847396 -0.06139199 
0.2030691 0.02658367 0.1798736 
0.3066532 0.2785593 -0.02752861 
-0.165091 0.1434919 0.1333127 
-0.2444322 -0.01218877 -0.1911252 
0.1859773 0.3488466 0.07051854 
0.1477011 -0.1762272 -0.02584585 
-0.04820924 -0.4653417 -0.2015013 
-0.2828069 0.2410073 -0.1197099 
-0.06367644 -0.3910467 -0.2601068 
0.1709369 0.2754299 0.1796438 
-0.06840479 -0.05344433 0.1351593 
0.1074697 0.3463653 0.1653335 
-0.06864569 -0.06033915 0.1161256 
-0.05160546 -0.4755726 -0.04319471 
0.1055894 -0.07877456 -0.07597178 
0.3057782 0.2846033 0.01204817 
0.1828599 -0.03903742 0.09788367 
-0.156074 0.01362715 0.07927825 
-0.1280134 -0.02409263 -0.01429176 
0.1220718 -0.3651987 -0.02706743 
-0.02144919 -0.149101 -0.01140526 
-0.2007977 0.2096059 -0.1709594 
-0.2138454 -0.1542618 -0.07999761 
-0.06145695 -0.4135426 0.0997223 
-0.09180185 0.1995811 0.1964127 
-0.2644819 -0.3822404 -0.04774519 
-0.03865837 -0.340773 0.1118104 
0.1312805 -0.03707947 -0.1340474 
-0.003925418 0.1274665 0.2815997 
-0.09238961 0.34101 0.1254324 
0.1921666 -0.02352066 0.1190494 
-0.0467328 0.3071484 0.1907383 
-0.02268226 -0.1247982 0.06342997 
0.04477087 0.03650875 -0.2314458 
0.115662 -0.06468549 -0.09266171 
0.1412016 -0.1868746 0.1270754 
0.04364825 -0.3975617 -0.1267028 
0.1755136 0.4469068 -0.0462656 
-0.08903436 0.3778987 -0.007856028 
0.1180572 -0.4123141 0.006374144 
0.1100185 -0.1197556 0.1263441 
0.07534214 0.1564647 -0.2592468 
0.1520012 0.1060251 -0.2234301 
0.2284381 0.00127144 0.09074719 
-0.1367565 0.02164937 0.1385656 
0.1138484 0.1928764 -0.2437635 
-0.1623701 -0.1469184 -0.06333306 
0.178074 0.2315278 0.1811477 
-0.07038459 0.1771727 0.2037502 
-0.2479798 -0.2507915 0.009893273 
0.2790521 0.1069742 0.06047821 
0.2709121 0.1499221 -0.08041275 
-0.2765167 -0.1291757 -0.2754623 
0.0139547 -0.3872815 -0.2008488 
-0.2033775 -0.227648 0.02758559 
0.1974105 0.3730534 -0.127493 
-0.244045 0.1270351 -0.09945461 
-0.08128881 0.2811955 -0.2069533 
-0.3053619 0.2138859 -0.02295659 
-0.1429397 0.01376077 0.1200716 
0.2407813 0.05660889 0.1426753 
0.1115075 0.4159225 -0.01377302 
0.27856 0.1305672 -0.04847792 
-0.2153276 0.1393314 -0.1647837 
0.2746673 0.3441908 0.009515993 
0.2529333 0.02063407 0.01341704 
0.2823246 0.1126584 0.03542335 
-0.1814226 -0.3951871 -0.239203 
0.3169897 0.356348 -0.05065928 
0.2606853 0.1811177 0.1128172 
0.1870399 0.4118576 0.02731424 
0.05100729 0.2533928 0.2252362 
-0.1457555 0.06688871 0.1333018 
-0.05948642 -0.3631137 0.08820626 
-0.1307213 0.339183 0.06373974 
-0.1534259 -0.3531445 -0.2724718 
0.04591461 -0.4873369 0.01787415 
-0.2874049 -0.1307072 -0.2632986 
-0.1732575 0.2578057 0.09922425 
-0.09185594 -0.257929 0.07017265 
0.236488 0.0053064 0.07622041 
-0.005700097 -0.4873565 -0.1333922 
-0.1889906 0.04964178 0.004861655 
-0.03795181 -0.2955227 -0.2758339 
-0.2224066 -0.4035139 -0.1916064 
0.2306882 -0.009309126 0.02530609 
-0.02389504 -0.127536 0.03536145 
-0.02777252 -0.1497574 0.06554404 
0.2809264 0.1765668 -0.02050152 
-0.1155158 -0.03714525 0.07272382 
-0.2867442 -0.3138717 -0.1051997 
-0.2469017 -0.1088663 -0.1787995 
0.1701523 0.3203204 0.1501061 
-0.2682471 -0.2329586 -0.2458226 
0.2470198 0.04239356 0.1141218 
-0.1831055 0.2890248 0.01195445 
0.2083272 0.04172308 0.1852043 
-0.1096483 -0.4866043 -0.005960035 
0.1318946 -0.3304912 -0.008826612 
0.03279109 -0.4475529 0.1295327 
-0.2774806 -0.2784976 -0.0251749 
0.2418689 0.2457662 -0.1226855 
-0.0587629 -0.487596 0.06847142 
0.02745131 -0.2875286 -0.2059745 
-0.2711116 0.1443761 -0.0397766 
-0.1591171 0.01000552 -0.03970001 
0.03701514 -0.3282261 -0.1861807 
-0.190897 -0.1626788 -0.2497194 
-0.05889409 -0.4864289 -0.1026333 
-0.05722529 -0.3968883 0.08634374 
-0.1894885 0.02140383 -0.2064858 
0.07444246 -0.487676 -0.01382033 
-0.04824857 -0.04750583 -0.114013 
0.2559983 0.03234757 0.06691614 
0.1650451 -0.03967795 -0.09412313 
-0.09852703 -0.3492571 0.06449842 
0.163471 -0.1731359 0.01097319 
0.2327451 0.3211888 0.02126436 
0.02216852 0.36648 0.1512443 
0.03334732 -0.08472915 -0.07977287 
-0.001495054 0.3583571 -0.1720953 
-0.1617481 -0.305189 -0.2824031 
0.08575314 -0.4276628 0.03878978 
-0.2344447 -0.410664 -0.001993814 
-0.123445 -0.02780347 0.086383 
0.1204405 0.002335223 -0.1907974 
-0.3212904 0.271507 -0.04697791 
-0.2776166 -0.05995358 -0.2026739 
0.2302055 0.1042588 -0.1526457 
0.01762192 -0.09887914 -0.06017638 
0.2813036 0.4164431 0.001080458 
-0.1451446 -0.4871607 -0.1190769 
-0.1829824 -0.1908471 -0.271484 
-0.2122192 0.1102864 -0.2012428 
0.1369008 -0.4873687 -0.04441982 
0.02265537 -0.4886234 -0.01019755 
0.1349449 -0.07359754 -0.05840784 
0.1521843 0.0673724 -0.2131892 
0.01392689 0.361504 -0.1698229 
-0.2873485 0.2685523 -0.1134248 
-0.243915 0.09893966 -0.1334544 
-0.1152994 0.3618423 -0.03172404 
-0.1170511 0.2690157 0.1691265 
-0.09974181 -0.3183923 0.05761584 
0.2800121 0.1253556 -0.0342536 
-0.1992216 0.1988606 0.06307229 
-0.1961748 -0.3434125 0.05908196 
-0.2765679 -0.2760454 -0.1977384 
-0.09782387 0.1853234 -0.2272802 
0.1064618 0.1252951 -0.2480922 
0.07747024 -0.1251475 0.1463605 
0.1189213 0.04056956 0.2565532 
-0.2118558 -0.4135971 -0.1981181 
-0.09221727 -0.4807272 -0.03557014 
0.3220317 0.370914 -0.0256948 
-0.1464643 -0.4612178 -0.2192138 
0.07262851 0.2115561 0.225126 
0.05983634 -0.09613903 0.1371603 
-0.1667675 -0.4872212 -0.128306 
-0.2595974 -0.3951293 -0.0739781 
0.1679255 -0.2678723 0.02458188 
-0.2893021 0.3276869 -0.02501854 
0.07417805 0.1747011 -0.2586353 
-0.2774762 -0.1725129 -0.2695564 
0.1785901 0.02165792 0.2041287 
0.1592956 -0.07904621 0.01954181 
0.1311791 0.3189767 -0.1792079 
0.00854783 0.1042638 -0.2575057 
0.07189514 0.414376 0.01120653 
-0.240347 0.110932 -0.06357681 
0.0529868 0.02859845 0.2511829 
-0.2102544 -0.4320916 -0.1839439 
-0.2004942 -0.1667379 -0.263522 
0.2208702 0.3110152 0.06662285 
-0.1303508 0.2452945 -0.192726 
-0.09209446 -0.4045639 -0.2581731 
-0.2416725 0.1190503 -0.08626963 
-0.1307406 -0.4862524 -0.108487 
-0.2410675 0.2727485 -0.1427911 
-0.2311219 -0.3819748 0.02549777 
0.04127859 -0.07491213 -0.0982426 
-0.074669 0.1861218 -0.2389262 
0.08668181 -0.2699839 -0.1007449 
0.1467544 0.005075444 0.216241 
0.2564885 0.08508659 -0.1024822 
0.125934 -0.416367 -0.09865148 
-0.28593 -0.2757128 -0.1629084 
0.2337079 0.2939501 -0.1276015 
-0.1277246 0.2725714 0.1581146 
-0.06344515 -0.0539442 -0.08445308 
0.154272 -0.2413439 0.1128166 
-0.1661296 -0.4085591 -0.2412675 
-0.1122336 -0.1422835 -0.09707437 
-0.02072555 0.04098424 0.2677972 
0.1304121 -0.01855818 -0.16199 
-0.01540807 -0.1350875 -0.01294309 
0.1323558 0.03965243 0.2492313 
0.2164756 -0.02450394 0.02688302 
-0.08335485 0.03858707 -0.1986209 
-0.1015422 0.00340237 0.1769048 
0.1037786 0.002318676 -0.197746 
-0.1257165 -0.2442112 0.04518755 
0.1076201 -0.4362746 -0.1179977 
0.293744 0.2420174 -0.02429007 
-0.1218803 -0.1428988 -0.08539428 
-0.1888335 -0.1386488 -0.1476357 
0.009704963 0.3061146 0.2051599 
0.04669742 0.3120312 0.2028456 
0.2312167 0.08995578 -0.1463535 
0.3093962 0.4551899 -0.03047587 
0.08639133 -0.0822029 -0.07927157 
-0.2547323 -0.1882527 -0.2805962 
0.0582507 -0.3413451 0.1167883 
0.003579303 0.1822752 -0.262131 
0.1267762 -0.3030581 0.1023015 
0.2461081 0.01005201 0.02280385 
0.1022571 -0.1327735 -0.05249892 
-0.1872281 -0.007441014 -0.2142461 
0.05908675 -0.1791743 0.1693678 
-0.2203749 -0.1831264 -0.02453195 
0.07187178 0.0866276 -0.2504188 
-0.1556751 0.001180118 0.03278869 
0.2547485 0.1943958 -0.1151445 
0.06566259 0.0355801 0.2594136 
-0.1289204 0.1023344 -0.2034033 
-0.05019315 -0.1656578 0.009010275 
0.2222125 0.0170059 0.1376662 
0.01632542 0.2179293 0.2315054 
-0.2592876 0.1367379 0.002424233 
-0.1457642 -0.4350447 0.1075085 
-0.2106353 -0.08402642 -0.2353792 
0.1385643 -0.05571193 0.1313544 
-0.2250206 -0.315191 -0.2461759 
0.2270982 0.06754109 0.1732086 
-0.02865792 0.2830554 0.210168 
0.2587442 0.1636219 0.1221556 
0.2787269 0.1951431 -0.03813941 
0.04986567 -0.4200907 -0.1418142 
0.1491123 -0.3002478 0.0488404 
-0.2231617 0.004477634 -0.2083342 
0.2423615 0.2152116 0.1352617 
-0.1038487 -0.1438177 -0.1163603 
-0.255294 -0.3799478 -0.00950258 
0.01878885 -0.4074158 -0.1778732 
0.1583224 -0.4382377 -0.04557864 
-0.2460724 -0.08070583 -0.1721214 
-0.2274193 -0.3296074 -0.2369657 
-0.173827 0.01132943 -0.121886 
0.1628849 0.007322104 -0.1663361 
-0.06860707 -0.1927475 0.04652569 
-0.02805449 -0.3148499 -0.2697179 
-0.1141908 0.3599885 -0.05159266 
-0.1082776 -0.4238732 -0.2478574 
0.1997194 0.2937572 -0.1493876 
-0.1492772 -0.1543411 -0.04267765 
-0.1623473 0.2046218 -0.1856547 
-0.2877132 -0.08476007 -0.1979581 
0.06072437 0.1789168 0.2395103 
0.008216722 0.4071006 0.05113229 
-0.2374043 0.1237886 -0.1547749 
-0.07826956 -0.4477775 0.109504 
-0.276921 -0.2961749 -0.02291106 
0.2480864 0.1264943 0.148597 
0.2032604 0.3059158 0.1252776 
0.02507883 -0.08916387 0.1347752 
0.05915127 0.2727751 -0.2359001 
0.0511524 -0.4828139 -0.151419 
-0.0606201 0.2741662 0.202741 
-0.009273127 -0.1444453 -0.02724518 
-0.08929103 -0.03933137 -0.07875252 
-0.1307297 -0.02408768 0.005146309 
-0.1473719 0.2796251 0.1290804 
0.05666791 0.3799217 -0.1423956 
-0.2998287 0.1927328 -0.02578023 
0.1542922 0.1816998 0.1900355 
-0.1007462 0.0750798 0.1705005 
-0.1991218 0.06373775 -0.101879 
0.1003963 0.1017777 0.2728407 
-0.1869227 0.04385473 -0.06424382 
0.2805018 0.1627811 0.04905815 
0.1194586 0.09415257 -0.2377929 
-0.03079606 -0.3130404 0.1279293 
-0.02879824 -0.1654882 -0.06995964 
-0.03646255 0.1734831 -0.2536086 
0.1959625 0.3494532 0.04082211 
0.1039601 -0.03439137 0.2023565 
-0.04374442 -0.190259 -0.2182532 
0.09239541 0.385769 -0.1216247 
-0.1244531 -0.4584614 0.1130203 
0.0964531 0.3688679 0.1417524 
0.1339825 -0.3050985 0.08742142 
-0.1932865 0.2974351 0.0001838317 
-0.1944765 0.09358656 -0.2046596 
0.1531915 -0.2081302 -0.03054573 
-0.3034732 0.2303562 -0.01967013 
-0.2393885 0.287304 -0.1372556 
0.1891075 -0.04939035 0.03038424 
-0.02462173 0.3397299 -0.1856385 
-0.3012645 -0.1792786 -0.2106664 
-0.1426022 -0.4040342 -0.2536416 
-0.2151857 0.07777507 -0.02546671 
-0.1821053 -0.4699821 -0.1853241 
-0.04647173 -0.06856689 -0.06592363 
-0.1349073 0.0438653 -0.1788697 
-0.07706997 -0.2263683 -0.2712499 
-0.2355722 -0.06347353 -0.2607951 
0.2108089 0.3018724 -0.1397546 
0.09930605 -0.4009182 0.033567 
0.02785359 0.2977074 0.2107508 
0.05532492 -0.4310081 0.0828853 
-0.04293014 0.3978013 0.02146896 
0.1740144 -0.03964745 -0.0805425 
-0.1836944 0.2752328 -0.1533871 
0.2758213 0.2380829 0.05450957 
-0.2896021 -0.1960678 -0.239558 
-0.2862963 -0.3007211 -0.1321655 
0.1269704 0.4040217 -0.08089244 
0.07313065 -0.3795093 -0.1055245 
-0.1305725 -0.3950113 0.0754588 
0.2005114 0.1933594 -0.1897815 
-0.2706185 -0.2024527 -0.2623702 
-0.1769869 0.02943493 0.004296272 
-0.03152371 -0.2627073 0.1335362 
0.1582303 -0.1570768 0.009476057 
0.1324928 -0.05040437 -0.1065117 
0.2894975 0.4026673 0.001750984 
0.2885352 0.261607 -0.06527995 
-0.01046543 0.05940393 -0.2381112 
0.261782 0.07205261 -0.07903467 
0.2363736 0.486637 -0.03693654 
-0.005392018 -0.1926609 -0.1576539 
-0.001128417 -0.2195577 0.1555818 
-0.00698643 0.1310084 -0.2592437 
-0.2876578 -0.08275181 -0.2298864 
-0.1262167 -0.4211655 0.1042828 
0.1731229 0.1708449 -0.2150346 
0.3048475 0.4602805 -0.007817259 
-0.1026686 -0.4142352 0.09754679 
0.0920053 0.04460166 -0.2279427 
-0.1780463 0.0488488 -0.1970816 
-0.0475062 -0.475092 -0.02133274 
0.2482819 0.3380832 -0.1209565 
-0.2592978 -0.2798152 0.006839776 
0.1318022 -0.2821169 0.1210454 
0.06037704 -0.244545 -0.1193463 
0.03083828 -0.4877005 0.06944245 
-0.289565 0.3472791 -0.07134359 
0.01926783 0.02154562 0.2549616 
0.04068025 0.1753019 -0.2638432 
0.1493805 -0.1863883 0.1138015 
-0.2226714 -0.440625 -0.1510952 
-0.1438542 -0.1362946 -0.09479561 
-0.1512032 0.3365895 0.01815499 
-0.0780668 -0.4876886 -0.08944676 
0.03371051 0.4141565 0.01029053 
0.1469259 -0.004412632 -0.167068 
-0.009653563 -0.06571311 0.156939 
-0.2859703 0.1785227 -0.07494347 
0.1153113 0.2529934 -0.2263158 
0.04201617 -0.05915945 0.1826136 
0.190369 -0.02898777 -0.07757551 
-0.2381946 0.1826882 -0.008215236 
-0.2346716 -0.4167492 -0.1544743 
0.1911375 0.3122297 0.1345032 
0.2193639 0.3958078 0.00733654 
0.03143424 -0.4501821 -0.1866551 
-0.1811553 -0.48351 -0.01958227 
-0.165075 0.1743826 -0.1878091 
-0.2573114 -0.2400079 -0.006510833 
-0.3002264 0.2015473 -0.06833688 
0.02483104 -0.04159994 -0.1582103 
0.0711439 -0.3180173 -0.1076017 
-0.1059937 -0.4529504 -0.2298681 
0.2748243 0.234395 -0.07235082 
0.2700107 0.06456302 -0.03473638 
-0.06726208 0.3142412 -0.1903498 
-0.05248999 -0.3455635 -0.2756217 
0.04249413 0.2218723 -0.2568173 
-0.2881174 -0.2323448 -0.205128 
0.1232321 -0.3806946 -0.02490058 
0.2094743 0.4381701 -0.09173489 
-0.1994696 0.2342094 -0.1668828 
-0.2762902 -0.2485569 -0.0369453 
0.0432761 0.006180906 -0.2122878 
-0.0413133 0.3992752 0.0001094332 
-0.03000081 0.2198004 0.2260079 
0.1897971 -0.01100225 0.1492431 
0.005429151 -0.09338733 0.1220272 
0.04303948 0.2349934 0.2295469 
-0.2059556 0.2951813 -0.01009538 
-0.2326617 -0.08772551 -0.1765311 
-0.1164025 0.3624483 0.0009376849 
-0.1985454 -0.1484679 -0.08416992 
-0.07517882 -0.4414242 -0.2306205 
0.1661837 0.001644308 0.1983768 
0.132864 -0.00422628 -0.1763471 
0.06172179 -0.4826927 -0.1391912 
-0.05126739 -0.3147439 0.1086436 
0.2857066 0.3426699 -0.09624972 
0.1793682 -0.034089 0.1174953 
-0.09466529 -0.1527186 -0.1817577 
-0.04840535 0.1290549 0.2323492 
-0.07622967 -0.1537951 -0.05786596 
-0.07654706 -0.1999274 -0.2516339 
-0.06878592 0.02214795 0.2242965 
-0.182446 -0.2352948 0.0387026 
0.1432719 0.3652115 -0.1338757 
0.1719583 -0.2159419 0.01137228 
-0.2743121 -0.3404319 -0.1363607 
-0.05210377 -0.4164763 0.1171928 
-0.1482882 0.0601065 -0.1849858 
0.01123571 -0.4018102 -0.1904842 
0.1266409 0.05742472 -0.2219651 
0.07473428 -0.1824488 0.1684834 
0.1787218 0.3459962 0.09706867 
-0.2007331 0.2345052 -0.002753364 
-0.1781033 0.3384898 -0.009616745 
0.120372 -0.139641 0.1273009 
0.08743894 -0.4639905 -0.1252734 
0.3205131 0.360237 -0.03626594 
-0.07799242 0.1117754 0.1897147 
-0.1827384 -0.150442 -0.2066007 
-0.214262 -0.1035282 -0.2435057 
0.1031274 0.04193779 0.2619831 
-0.2914374 0.2451727 -0.02077469 
-0.09321269 0.2502619 -0.2153153 
-0.2495683 0.2147937 -0.1478003 
0.01673438 -0.316128 -0.2334737 
-0.1130586 0.1100022 -0.2149629 
0.2610004 0.1982099 0.1057914 
-0.1261944 0.05817172 -0.1890325 
0.2664326 0.04839481 0.04462092 
-0.2840054 0.3205795 -0.09680282 
0.1182518 0.3144405 0.1873083 
-0.2128085 -0.1189498 -0.2282699 
0.07645795 -0.4229884 0.05262645 
0.04439665 -0.2111105 0.1733098 
-0.2886833 -0.2436841 -0.1828981 
0.113513 0.3627732 0.1425717 
-0.2931431 0.1785695 -0.02259807 
0.1732692 -0.05820607 -0.02500517 
-0.08456776 0.3765905 -0.04475972 
-0.1445149 -0.4867247 -0.1788468 
-0.225219 0.002665224 -0.1443996 
-0.2695516 -0.2162257 -0.2556414 
-0.2916546 -0.2269813 -0.1874417 
0.08440946 0.2352306 -0.2444814 
0.02290349 0.3052793 -0.2222739 
-0.05286147 -0.1623826 -0.1363675 
-0.2427001 -0.009661878 -0.1712634 
0.06314743 -0.4856067 0.03066505 
-0.1964175 -0.4823143 -0.1227548 
-0.171006 0.2821012 0.07036497 
-0.1681409 0.3316959 0.004055015 
0.07681618 0.3126351 0.1992459 
-0.06068365 -0.4627232 -0.2115845 
-0.2674404 -0.2266711 -0.03382734 
0.1297915 -0.4886952 -0.06506471 
0.02220464 0.113206 -0.2600468 
-0.06123651 0.1653901 0.207523 
-0.09125016 -0.1804772 -0.2386874 
0.03521025 0.3425975 -0.1915257 
0.2772768 0.1194457 0.07220291 
-0.07985831 -0.05489557 -0.04379346 
-0.2257081 -0.4260194 -0.004072034 
0.06808582 -0.3679778 0.08964942 
-0.1081649 -0.03472804 -0.0399729 
-0.07022028 -0.15089 -0.07742576 
0.235748 7.076235e-05 0.05848603 
-0.2694901 -0.3462963 -0.01617859 
-0.02865733 0.02236399 -0.2098387 
0.07837101 0.3887605 0.1141181 
0.2700914 0.1093581 0.09754452 
-0.2419048 -0.2808125 0.02615312 
-0.2910238 0.1794002 -0.05679943 
0.220632 0.02653959 0.151706 
-0.03627053 -0.1567391 -0.02026506 
-0.1276782 -0.207995 0.02657352 
0.05947257 -0.4258359 -0.1308667 
0.1582422 -0.2621585 0.09397446 
-0.186687 0.2382502 0.07990769 
0.05933452 0.1135636 -0.2591189 
-0.2453054 -0.2938936 -0.2378636 
-0.01358891 0.3619297 -0.1623108 
0.2476411 0.2824366 -0.1171545 
0.2548959 0.04414696 0.09325837 
-0.177516 -0.4457273 0.07736818 
0.1257065 -0.166138 -0.04607836 
0.2364335 0.0229867 0.1130159 
0.0382795 -0.2410351 0.1722613 
-0.08372689 0.3637058 0.09395107 
0.1655789 -0.4659681 -0.07609005 
-0.1227036 -0.4758288 0.104216 
-0.244038 -0.4236634 -0.083731 
-0.05381327 -0.08028573 0.00940684 
-0.02201594 0.3982244 -0.06441751 
-0.2831441 -0.09756412 -0.1864159 
-0.05690049 0.02331287 0.2361939 
0.2315988 -0.007836044 0.04229758 
0.2267153 0.1658113 0.1611281 
-0.195852 -0.05620592 -0.2071786 
-0.2750351 -0.1360225 -0.1760814 
0.02718082 0.2855612 -0.2340069 
0.03805274 -0.415651 -0.1550162 
-0.03439017 -0.166791 -0.1036258 
0.2567397 0.300473 -0.1134336 
-0.259611 0.1317662 -0.04881018 
0.2453916 0.06778476 -0.1138213 
0.2544037 0.4888421 0.00616724 
0.1331872 -0.03731159 0.1730942 
0.1694183 0.1068775 -0.2119734 
-0.07479268 0.1292564 -0.2390351 
-0.03405349 -0.1577941 0.03350554 
0.2748386 0.1122482 -0.05963553 
-0.06603987 -0.4866069 0.02817765 
0.1827888 0.07285527 0.2213495 
-0.1667454 -0.4738947 0.08032715 
-0.2350493 -0.4347374 -0.1136996 
-0.1878107 -0.3691468 0.0604682 
-0.2539873 -0.3329928 -0.2010028 
0.0205902 0.1827133 -0.2632709 
0.1283995 -0.394783 -0.02665166 
-0.287827 0.217307 -0.1071532 
0.09280342 0.05212465 0.2699474 
0.2544838 0.255298 0.08200437 
0.04428357 0.3319207 -0.2002944 
-0.2076343 -0.1454436 -0.1840182 
-0.1247833 0.3394213 -0.09992434 
-0.2773381 0.2888305 -0.1169336 
-0.1036172 -0.1537671 -0.1943814 
0.1927053 0.0147231 0.1824229 
-0.014355 -0.008972676 -0.1874461 
-0.05080276 0.3942712 -0.02794589 
0.2067683 0.09957734 -0.179236 
0.05438568 -0.001961185 -0.2050903 
-0.26189 -0.3505425 -0.1669458 
0.2546241 0.428301 -0.09589736 
-0.04429021 0.3048803 -0.2100352 
-0.2378284 0.1349524 -0.1327535 
0.01741669 -0.475738 0.1404268 
-0.1411709 0.03051126 -0.1671917 
-0.1865472 -0.4847232 -0.1416762 
0.03139201 -0.4882337 -0.07987523 
-0.2239576 -0.4498575 -0.1323024 
-0.1037096 -0.1720639 -0.2326768 
0.01829316 -0.4232551 -0.1855009 
-0.05584029 -0.07881718 0.05642611 
0.2092902 0.1643921 0.1689191 
-0.1665015 0.155159 -0.1870252 
0.08624746 -0.2997003 0.1402055 
-0.1165801 0.1215531 0.1546829 
-0.2223339 0.09145628 -0.08041708 
-0.2360593 0.1765604 -0.1524166 
0.1178619 -0.218946 -0.06964844 
-0.06968116 0.3538329 0.129706 
-0.1714935 0.02542045 -0.06344529 
